ply
format ascii 1.0
comment VCGLIB generated
element vertex 746
property float x
property float y
property float z
property float nx
property float ny
property float nz
element face 0
property list uchar int vertex_indices
end_header
0.2753093 0.9502999 -0.1236696 0.2831456 0.9535915 -0.1024305 
0.03415632 -0.9903347 0.1149686 0.06513955 -0.9922258 0.1060415 
0.5684782 -0.673168 -0.466017 0.5657559 -0.6872132 -0.4556953 
0.8553357 -0.4196461 -0.2967004 0.8508645 -0.4195918 -0.316184 
-0.5765693 0.7460864 -0.3225191 -0.5682913 0.7507169 -0.336852 
-0.2185152 -0.02253582 -0.9723265 -0.2083313 -0.03245244 -0.9775199 
-0.7870462 -0.2052556 0.5773433 -0.8014172 -0.1952958 0.5653229 
-0.1746183 0.9009936 0.3892248 -0.177381 0.9004484 0.3971506 
-0.3714516 -0.708813 -0.5942173 -0.3700905 -0.7193621 -0.587836 
-0.4738743 0.8703721 -0.09961019 -0.4768444 0.8751836 -0.0816891 
-0.7862169 -0.2418807 0.5633324 -0.7944209 -0.2458733 0.5553754 
0.01574336 -0.7846528 -0.6145521 -0.001185799 -0.7909839 -0.6118358 
-0.8296635 -0.5271079 -0.1698159 -0.8300218 -0.5269271 -0.1827885 
-0.9988269 0.01645211 -0.0006599783 -0.9994377 0.03338508 0.003148105 
0.4278566 0.8974309 0.08159032 0.4371327 0.8959574 0.07858444 
0.7280779 0.5188579 -0.4405442 0.7209214 0.5218323 -0.4560302 
-0.6938323 -0.5610999 0.4457458 -0.6978822 -0.5508115 0.4577849 
-0.5796764 -0.07739777 -0.8077679 -0.5706577 -0.07341532 -0.8178997 
0.6301386 0.6852548 -0.3587761 0.6304504 0.6843696 -0.366293 
-0.2601373 0.6105532 -0.7456223 -0.2651542 0.6030462 -0.7523488 
0.7208385 0.2775852 -0.6298316 0.7124311 0.289501 -0.6392426 
0.06275979 0.3163386 -0.9420455 0.06865814 0.3253954 -0.9430822 
0.2121042 -0.9241716 0.3080689 0.1920804 -0.9337367 0.3020611 
0.1048473 0.1885066 -0.97302 0.1018019 0.2089658 -0.9726097 
-0.09688442 -0.5286086 -0.83959 -0.08633398 -0.5189877 -0.8504106 
0.7641931 0.3179649 -0.5549067 0.7638746 0.3162085 -0.5625902 
-0.3921939 -0.02005383 0.9179998 -0.3836955 -0.04206112 0.9225013 
0.07911251 0.8511418 0.5132248 0.08062515 0.8475515 0.5245532 
0.4890494 0.8147663 -0.3082786 0.4875278 0.8182683 -0.3045549 
-0.2117071 -0.2375641 0.9445769 -0.2195299 -0.2246389 0.9493914 
0.1292295 0.8294131 0.5371473 0.1312184 0.8251894 0.5494037 
0.8950202 -0.04746242 0.4359526 0.8951026 -0.03405918 0.4445576 
0.3738538 0.138187 -0.915619 0.3683694 0.1393109 -0.9191825 
0.6701934 -0.308865 -0.6712462 0.6742922 -0.3124065 -0.6691279 
0.9497205 -0.2208819 -0.20502 0.9539242 -0.2222237 -0.2016065 
-0.8359607 0.3816884 0.3920015 -0.8419923 0.3784037 0.3845251 
0.7069731 0.4852775 -0.5078964 0.7061384 0.4904302 -0.5107318 
-0.04785739 -0.8007047 -0.5929493 -0.02643363 -0.8076925 -0.5890111 
-0.5841129 -0.5807971 -0.5592976 -0.5826614 -0.5831337 -0.5660926 
-0.7099295 -0.1827514 -0.6772383 -0.7172608 -0.1937833 -0.6693168 
0.2068683 -0.9127759 0.3427651 0.2023019 -0.9155291 0.3476787 
0.8195061 -0.5057044 -0.2554787 0.827657 -0.5009274 -0.2530921 
0.4574749 -0.557932 0.6866883 0.4565133 -0.5615359 0.6901254 
-0.391147 0.8691422 0.2932927 -0.3944209 0.867884 0.3020094 
0.2910432 -0.9457167 0.1168008 0.3066233 -0.9471088 0.09469468 
0.3735477 0.08247804 0.9213994 0.3783149 0.06442928 0.9234321 
0.5494205 0.6695356 -0.4951079 0.5480387 0.688289 -0.4753019 
0.5086133 0.4637693 0.7204133 0.5160738 0.4782424 0.7105998 
-0.7863875 -0.5308594 -0.3091015 -0.7969481 -0.5305021 -0.288862 
0.2808048 0.4721708 0.8320801 0.2581039 0.4630477 0.8479205 
-0.8003972 0.1710966 -0.5686933 -0.7928994 0.1790085 -0.5824659 
-0.1635973 -0.8542791 -0.4886426 -0.1813882 -0.8473391 -0.4991141 
-0.1060647 0.5611595 0.8170989 -0.1034474 0.5646234 0.81884 
0.5026336 0.1191801 -0.8541799 0.5094327 0.1179437 -0.8523893 
-0.5581627 0.2815413 0.7762147 -0.5661511 0.2805786 0.7750797 
0.4478413 0.2925708 0.8418872 0.4691023 0.2913083 0.8337161 
-0.07424735 -0.2880298 -0.9503664 -0.08369944 -0.304723 -0.9487562 
0.5446764 -0.6163539 0.5630522 0.554126 -0.6134503 0.5626926 
-0.7778918 0.508211 -0.3658029 -0.7880573 0.4847254 -0.3794825 
0.6160493 -0.1478052 -0.7693179 0.6223085 -0.1625089 -0.7657173 
-0.1112749 -0.9897049 0.02073259 -0.1043799 -0.9945305 0.003718805 
0.4721264 0.5420523 0.689705 0.4653701 0.5238026 0.7134855 
0.9413078 -0.3239521 0.04433174 0.9464073 -0.3187187 0.05226601 
-0.9478604 0.1786103 -0.2592622 -0.9535305 0.1781107 -0.2430151 
0.07036732 0.9839096 0.1413126 0.07697024 0.9851775 0.1532999 
-0.2196472 -0.5261927 -0.8173432 -0.2331812 -0.5203362 -0.8215089 
-0.9121215 0.3313107 0.2294321 -0.9151376 0.3405517 0.2157492 
-0.2924088 0.5500461 -0.7783738 -0.3001572 0.5522684 -0.7777565 
-0.3879614 -0.4513284 0.7991483 -0.3818086 -0.4619385 0.8005218 
-0.4571678 -0.8776923 -0.1194291 -0.4508303 -0.8837261 -0.1256193 
-0.9147251 0.0738252 0.3950448 -0.9175502 0.06809854 0.3917453 
-0.4267898 -0.8748878 0.2158115 -0.4424689 -0.8708034 0.2142959 
0.1894753 0.09813133 0.9740911 0.1951989 0.07481303 0.9779062 
0.4259977 0.5024747 0.7484301 0.4228597 0.5195261 0.7424839 
0.3443007 -0.4360121 0.8285615 0.3440548 -0.4450791 0.8267593 
0.2662751 0.9150613 -0.3022043 0.2603425 0.918922 -0.2963177 
-0.4690894 -0.826978 0.3020508 -0.4546969 -0.8382974 0.3008461 
-0.1379958 0.9868083 0.0639535 -0.1182826 0.9916002 0.05232812 
-0.7679787 -0.2574633 0.5831587 -0.76472 -0.2693989 0.585344 
0.5245225 0.1674474 0.8318051 0.52833 0.1715003 0.8315378 
0.5149919 0.8124086 -0.262632 0.5146503 0.8220747 -0.2435739 
-0.8561476 0.04012319 0.5092691 -0.8674817 0.06102335 0.4937122 
-0.2300828 0.8669574 -0.4376071 -0.2159773 0.8757327 -0.4317941 
0.0966184 -0.1897635 -0.9734204 0.09696174 -0.2024026 -0.9744905 
0.2283024 0.8157842 -0.525953 0.2289527 0.8310741 -0.5068496 
0.6474475 0.5435558 -0.5280996 0.6594565 0.5545645 -0.5075188 
-0.7353399 -0.5767518 0.3452361 -0.7367116 -0.5819054 0.344445 
0.6318745 -0.632287 0.4391399 0.6240354 -0.6406928 0.447317 
-0.9169674 0.2874081 0.2722034 -0.9170334 0.2859619 0.2779848 
0.3986757 -0.7833211 0.4700754 0.3988532 -0.7849361 0.474122 
0.5499498 0.1390674 0.8191146 0.5516705 0.1402271 0.8221898 
0.4292733 -0.8780816 -0.1927507 0.4430864 -0.8776553 -0.1827441 
0.4531859 -0.5828135 -0.6696898 0.4493197 -0.5997945 -0.6620864 
0.7683518 -0.07026502 -0.6340159 0.7710629 -0.04915804 -0.6348587 
0.6069585 -0.3025025 0.7307684 0.5918497 -0.3026779 0.7470609 
0.8601812 0.2344828 -0.4441971 0.8646673 0.2219017 -0.4506774 
0.5628433 0.4222631 0.7074767 0.5686672 0.4114946 0.7122428 
0.08220588 0.1561326 -0.9823777 0.08925362 0.1775818 -0.9800503 
-0.5644622 -0.8026762 0.1754078 -0.5802028 -0.7921899 0.1892086 
0.3950787 -0.4127487 -0.8177519 0.409917 -0.4310638 -0.8038359 
-0.5538936 0.7950801 0.2329248 -0.5406162 0.8094319 0.2292469 
-0.0685197 -0.2661236 0.9580623 -0.0749677 -0.2711896 0.9596021 
-0.1807271 -0.6744534 0.7130129 -0.1802798 -0.6741674 0.7162386 
-0.9762856 0.1745464 -0.09946365 -0.9801136 0.1683871 -0.1049905 
-0.6776617 -0.3516026 -0.641583 -0.6671775 -0.367515 -0.6479252 
0.9739261 0.2024944 0.05750097 0.9791702 0.197667 0.04640581 
-0.09682122 0.7583497 0.6410669 -0.1069087 0.751012 0.6515761 
0.9409403 -0.2548914 -0.2064148 0.945152 -0.2538787 -0.2055076 
-0.3374268 -0.9057201 0.2449687 -0.329519 -0.9162639 0.2277671 
-0.109913 -0.1103719 0.9853483 -0.1432996 -0.1113801 0.9833919 
0.648734 0.7328686 -0.1903407 0.6520467 0.7368082 -0.1787425 
0.9887133 -0.1323588 0.03033102 0.9934258 -0.1070079 0.04067587 
-0.8353496 0.5306813 0.1197234 -0.8266992 0.5519084 0.1093873 
-0.6924226 -0.5907959 0.4114404 -0.7019657 -0.5935656 0.393604 
-0.9674963 0.114891 -0.2088254 -0.972609 0.1055049 -0.207124 
0.580111 0.5165095 0.622974 0.5816256 0.5202337 0.6253548 
0.5961197 -0.05251073 -0.798349 0.59319 -0.02913812 -0.804535 
-0.9408776 0.06850361 -0.3183886 -0.9468182 0.07489926 -0.3129304 
0.301331 0.07054122 -0.9471072 0.3122429 0.07042589 -0.9473884 
0.4399861 0.8851439 0.1251933 0.4409556 0.8865438 0.1399944 
0.07694989 -0.1900893 0.9749942 0.07333048 -0.2051372 0.9759823 
-0.5802271 0.6075364 0.5364439 -0.5855302 0.593736 0.5519347 
0.4160831 -0.7185101 -0.5521371 0.4070784 -0.7383956 -0.5376423 
0.6085254 -0.2421279 0.7518242 0.6067989 -0.2554327 0.7526946 
0.6072013 -0.01969065 -0.7901149 0.6130025 -0.007445091 -0.7900459 
-0.8881264 0.450008 0.04173554 -0.8931033 0.4473302 0.04756282 
-0.3339698 -0.9324821 -0.1065574 -0.320778 -0.9430024 -0.08858855 
0.7915858 -0.4492428 0.4055518 0.7983738 -0.4527876 0.3969668 
-0.9480871 -0.2841613 0.1186131 -0.9508198 -0.2859799 0.1189838 
0.5681896 -0.3060214 0.7590877 0.5771099 -0.3138166 0.7539651 
-0.4514453 -0.7521499 0.4758788 -0.447471 -0.7515868 0.4846514 
-0.6794697 -0.319923 -0.6559099 -0.6842278 -0.317498 -0.6565267 
-0.5000861 -0.1070317 0.8570321 -0.5081716 -0.1023966 0.8551471 
-0.2574717 0.8905914 0.3674257 -0.2589931 0.8930921 0.3678438 
-0.03475508 0.9964809 0.02585924 -0.05550588 0.9977495 0.03761663 
-0.7116932 -0.6917497 -0.09054263 -0.709816 -0.6987174 -0.08919182 
0.259122 0.802699 0.5308523 0.2607109 0.8066322 0.5304475 
-0.7537401 -0.4938841 -0.4262606 -0.7451053 -0.507628 -0.4325875 
0.8723823 -0.4792537 0.04799372 0.8825622 -0.4664612 0.05914286 
-0.4019119 -0.3533743 0.8417946 -0.4153494 -0.3404326 0.8435583 
0.2557971 0.7031652 -0.6601042 0.2444744 0.7091985 -0.6612637 
0.2458486 -0.6030144 -0.7578936 0.2352662 -0.6113253 -0.7555999 
-0.1525828 0.1772873 0.9685493 -0.1370538 0.1816695 0.973762 
0.4599557 0.8831576 -0.02200812 0.453835 0.8909783 -0.01384282 
-0.9637464 -0.1589026 0.1977895 -0.9706635 -0.1444417 0.1922211 
0.2211841 -0.5906697 -0.7739001 0.2192742 -0.58924 -0.7776343 
-0.3430361 -0.6982239 0.624417 -0.3593772 -0.6983228 0.6190261 
0.4893394 0.3288015 -0.8048811 0.4881475 0.3248813 -0.8100396 
0.1107516 -0.5012964 0.8542114 0.09318479 -0.4954441 0.8636271 
-0.07876503 -0.1015425 0.9894959 -0.08344318 -0.08936738 0.9924973 
0.1744907 -0.7755927 0.6016594 0.1705993 -0.7752873 0.6081328 
-0.5114993 0.426254 -0.741348 -0.5207135 0.4366957 -0.73359 
-0.7104189 0.484843 -0.5034335 -0.7006925 0.496758 -0.5121149 
0.8064384 0.5562154 0.1910142 0.8160981 0.5467783 0.1871296 
0.3424097 -0.9251914 -0.1373088 0.3468253 -0.9265707 -0.14553 
0.1844382 -0.1235337 -0.9727004 0.1719714 -0.121999 -0.9775183 
0.8704073 0.3914921 0.2881292 0.8796209 0.3825064 0.2827649 
-0.5291857 0.4956189 0.6827779 -0.5375361 0.4966163 0.6814889 
-0.2830768 -0.1686261 -0.9402032 -0.2800092 -0.1666064 -0.9454296 
-0.2634861 -0.9325321 -0.2363429 -0.2561778 -0.9371629 -0.2368514 
-0.5359631 0.7955022 0.272864 -0.5341986 0.804117 0.2608213 
-0.9338503 -0.2592057 -0.2327806 -0.9444696 -0.2401101 -0.2243306 
-0.740389 0.6286316 -0.2218728 -0.7398229 0.6363103 -0.2185663 
-0.2849892 -0.5168037 -0.8047588 -0.2678606 -0.5269567 -0.8065775 
-0.8515593 0.1631079 0.4938028 -0.8635305 0.1663527 0.4760692 
0.5480537 -0.02535459 0.8335556 0.5597411 -0.03499135 0.8279284 
0.2921538 -0.4842408 -0.8223201 0.2765341 -0.4791072 -0.8330578 
0.2167269 -0.8933755 0.3842148 0.2060304 -0.8985763 0.3874432 
-0.8293406 0.3823623 -0.4030502 -0.8309047 0.3801621 -0.4062932 
0.6771585 -0.199348 -0.705028 0.6648067 -0.207956 -0.7174863 
0.1601243 -0.1794274 0.9669824 0.1573416 -0.1798451 0.9710301 
0.764309 -0.2772646 -0.5771569 0.7653877 -0.2839531 -0.5775399 
-0.1857812 -0.9781107 0.05161669 -0.2053043 -0.9770036 0.05756876 
0.49114 0.2489783 0.8306724 0.5003715 0.2533402 0.8279173 
0.5296469 -0.5862685 -0.608292 0.5336748 -0.6025847 -0.5933658 
0.3363749 0.7900195 0.5106834 0.3323927 0.8016072 0.4969317 
-0.1823896 -0.9272386 0.316744 -0.1927839 -0.9303055 0.3120351 
-0.1812045 0.6835378 -0.7044415 -0.1806127 0.6717073 -0.7184625 
0.131779 -0.794014 0.5886036 0.1437681 -0.795126 0.5891564 
-0.02888062 -0.71175 -0.6989874 -0.05635801 -0.7209818 -0.6906585 
0.3787828 -0.6800553 -0.6227589 0.3693971 -0.6754727 -0.6381868 
0.5566216 0.6866235 0.4591819 0.5645055 0.6986179 0.4396209 
-0.4669117 0.7966161 -0.3746308 -0.4720305 0.795414 -0.3801368 
0.6137511 0.208953 0.7570702 0.6335346 0.2038539 0.7463763 
0.2345519 -0.9693688 -0.02184954 0.2218974 -0.974822 -0.02199511 
-0.3830463 0.4812114 -0.7844535 -0.3865014 0.4896127 -0.7815984 
0.6290529 0.2776729 0.7234414 0.6230119 0.2682371 0.7347823 
0.4512892 0.3517215 -0.8159728 0.4409027 0.3572157 -0.8234087 
-0.5400957 0.234871 -0.8048706 -0.5298578 0.2407403 -0.8132004 
-0.8945476 -0.4150355 0.1464167 -0.8931857 -0.417228 0.1677498 
-0.9235877 -0.3701823 0.06415432 -0.9277796 -0.367874 0.06240042 
0.7646804 -0.3079785 0.5597537 0.7659459 -0.3137165 0.5611674 
0.09655126 0.9879864 0.1004854 0.06766544 0.9913929 0.1120787 
-0.484372 0.8190222 0.3028899 -0.4764182 0.8289464 0.293042 
0.6930968 0.6596143 0.2860067 0.6933776 0.6677665 0.2707684 
-0.380307 0.9203545 -0.05774622 -0.360155 0.9318002 -0.04512995 
0.9380918 0.008724947 0.3338702 0.9341484 0.01661747 0.3564978 
0.0830908 -0.3096539 0.9424955 0.07391012 -0.3173967 0.9454082 
-0.5178348 -0.1068658 -0.8454188 -0.5361545 -0.09770676 -0.8384461 
0.3301334 0.9310703 0.130293 0.3377571 0.9325452 0.1275922 
0.1705266 0.03364016 0.9818704 0.1773411 0.04295302 0.9832116 
-0.398679 -0.8192972 -0.4057633 -0.4063587 -0.8107779 -0.4213216 
-0.1628339 0.5223767 -0.8362581 -0.1593533 0.5292715 -0.8333536 
-0.6624728 -0.4894735 -0.5631783 -0.661285 -0.4887767 -0.5690337 
-0.8806302 -0.4651412 -0.0335125 -0.8869338 -0.4613802 -0.02183579 
0.8024855 -0.4876345 -0.3369386 0.811081 -0.4838111 -0.3287469 
-0.4464588 -0.7316162 -0.5090706 -0.4597485 -0.7210798 -0.5183389 
0.5874727 0.5351766 -0.6013975 0.5832655 0.5363008 -0.610068 
0.9021484 0.3172418 -0.2854674 0.9029613 0.3228309 -0.2836215 
-0.09048609 -0.1958678 -0.9725279 -0.08538686 -0.2070771 -0.9745913 
0.3614169 0.818068 0.4400334 0.3579113 0.8202369 0.4462184 
0.6421766 -0.1063167 0.7562629 0.6642812 -0.09808266 0.7410198 
-0.01523342 0.9692041 0.2350993 -0.01246937 0.976135 0.2168067 
-0.2686191 -0.4975496 0.8214282 -0.2516054 -0.4910892 0.8339822 
-0.310164 0.9317976 0.1699061 -0.3290423 0.9278271 0.1756931 
-0.7285782 -0.08946038 -0.6737057 -0.7296413 -0.08649733 -0.6783375 
0.005587788 0.7411551 -0.6669801 0.004165454 0.7473187 -0.6644527 
0.04531597 -0.9720439 -0.214367 0.05378113 -0.9750287 -0.2154684 
-0.9885437 0.04924656 -0.1238256 -0.9891418 0.03820941 -0.1419105 
0.8122095 -0.3025527 0.4974188 0.8184903 -0.299904 0.4900318 
-0.68335 -0.1395276 -0.714124 -0.6718768 -0.1309032 -0.7290034 
-0.5969199 -0.6250446 0.4971814 -0.6105283 -0.6081537 0.5073503 
0.3076013 0.2359494 0.9197211 0.3197557 0.2249165 0.9204178 
-0.860254 0.08818433 -0.4940326 -0.8724098 0.08192495 -0.4818605 
-0.2253272 0.3134695 0.9185843 -0.2118913 0.3176676 0.9242236 
-0.6881962 0.531529 -0.4853704 -0.6817266 0.5394745 -0.4941822 
-0.800332 0.3361367 -0.4925671 -0.7947581 0.3584496 -0.4897689 
-0.9104873 0.3971775 0.0820122 -0.9083416 0.4111182 0.07679454 
0.4488407 -0.2593828 -0.8535483 0.4597694 -0.2482404 -0.8526365 
0.6964607 0.4355428 -0.5631828 0.6944045 0.4446429 -0.5657694 
0.05929904 0.9904498 0.09528368 0.06916042 0.993983 0.08493961 
0.2197162 -0.7802961 -0.5832494 0.2280494 -0.7766433 -0.5872126 
0.09732585 0.4926791 -0.8601812 0.08350901 0.4828352 -0.8717204 
0.7528033 -0.4965933 0.4245481 0.7607542 -0.4989286 0.4151184 
-0.08834105 0.5328865 0.8375549 -0.07141363 0.5330459 0.8430671 
0.7414185 0.227041 -0.6284581 0.7395166 0.2185832 -0.6366606 
0.2391486 0.3892691 -0.8891788 0.222187 0.3795758 -0.8980842 
-0.006353473 -0.3596007 0.9282635 0.001612973 -0.3560615 0.9344611 
-0.09072933 -0.9377947 -0.3259535 -0.08065119 -0.9459298 -0.3141849 
0.8010237 0.2950891 0.518042 0.8044392 0.2818421 0.5229175 
0.7204674 -0.6879065 -0.04366615 0.7245666 -0.6866092 -0.0597591 
-0.429395 -0.07375573 -0.8960719 -0.4324244 -0.07621124 -0.8984437 
-0.8731312 -0.2385623 -0.4186754 -0.8646763 -0.2413349 -0.4405592 
-0.6497204 -0.6092763 -0.4478827 -0.6443344 -0.6135802 -0.4564566 
-0.7062733 0.007190631 -0.7068875 -0.715415 0.0001224972 -0.6986998 
0.2732346 0.8466556 0.4526619 0.2774269 0.8445224 0.4580572 
-0.395063 0.3864928 0.8312901 -0.3991548 0.392488 0.8286306 
-0.5719651 -0.8026708 -0.1478093 -0.5808003 -0.8001661 -0.1496841 
0.8757652 0.41672 -0.2345323 0.885729 0.4001378 -0.2353167 
0.3939891 -0.5868315 0.7044062 0.4215853 -0.5908275 0.6878871 
-0.2120312 -0.3664688 -0.903112 -0.1902345 -0.3665219 -0.9107538 
0.3244191 0.9025335 0.2738504 0.3269398 0.9072378 0.2646319 
0.63653 -0.0257799 -0.7664745 0.6325588 -0.005550601 -0.7744926 
0.6248633 -0.5473704 0.5519738 0.6130734 -0.5825819 0.5336097 
0.1599846 -0.1182427 0.9769335 0.1613384 -0.1249374 0.978959 
0.3177474 -0.5862703 0.7407867 0.3196792 -0.5767698 0.7517592 
-0.1995355 0.5071257 0.8350645 -0.2119134 0.4930135 0.843819 
-0.3757553 0.0357825 -0.9230886 -0.3667463 0.07333579 -0.927426 
-0.5843874 0.785449 0.1872166 -0.5889035 0.7875087 0.1817214 
-0.3693823 -0.7767813 0.5069088 -0.3731597 -0.7809616 0.5008503 
-0.4583528 -0.832117 -0.3027302 -0.4550556 -0.8452218 -0.2802226 
-0.6027077 -0.04779159 0.7934538 -0.6014346 -0.02670919 0.7984754 
-0.6641997 -0.4853434 0.5643139 -0.6772908 -0.4686841 0.5671088 
0.6082625 0.642272 0.4577057 0.6160394 0.6489248 0.4465334 
-0.1344081 -0.8048132 0.572094 -0.1319762 -0.8130312 0.5670649 
0.1779073 -0.1832388 -0.963518 0.1714536 -0.190437 -0.9666113 
-0.3971586 -0.7121987 -0.5746315 -0.3906023 -0.725251 -0.5669575 
0.8056157 -0.2164828 -0.545184 0.8168037 -0.2259467 -0.5308295 
-0.5459435 0.6882007 0.4697501 -0.5548807 0.6985608 0.4517966 
-0.9125227 0.2704348 -0.2981285 -0.9198806 0.2506689 -0.3016368 
0.4611733 -0.878339 -0.08908508 0.4663053 -0.8794115 -0.09589019 
0.6912255 -0.7199353 0.00805706 0.6887991 -0.7242696 0.03145221 
-0.3211909 -0.9093978 -0.2519915 -0.3114712 -0.9158759 -0.2532926 
0.5522749 0.7120578 0.4241483 0.5500463 0.7093785 0.4407167 
-0.9365137 0.2383511 -0.2438478 -0.9421318 0.2361224 -0.237979 
-0.4593893 -0.882818 0.05020046 -0.4623062 -0.8860961 0.03326789 
0.7757309 -0.231731 -0.5834833 0.7817668 -0.2334752 -0.5782128 
-0.3082736 -0.8739644 0.3659788 -0.3091153 -0.8778536 0.3658151 
0.813857 -0.5752321 -0.04476997 0.8166534 -0.5754796 -0.04359423 
0.7599223 -0.3950722 0.5083498 0.7566412 -0.3909548 0.5240692 
0.9188187 -0.36017 0.1513595 0.9144741 -0.3657106 0.1731845 
-0.859161 0.07084981 0.4988261 -0.8670442 0.076052 0.4923928 
-0.2806744 0.9358431 0.1998564 -0.2858789 0.9353061 0.2085086 
0.5492123 0.01926617 -0.8332033 0.5558584 0.03020578 -0.8307281 
0.9419971 -0.04972844 -0.3198934 0.9481869 -0.04693364 -0.3142276 
-0.8757683 0.4778731 0.001143406 -0.8824828 0.4700288 0.01724115 
0.2426609 -0.3524026 0.9012941 0.2352597 -0.3340808 0.9127119 
0.7135921 0.6362195 0.2889741 0.7329453 0.6247518 0.2692145 
-0.224768 -0.6133605 -0.7556947 -0.2109289 -0.6322192 -0.7455252 
-0.8521046 -0.4584728 0.2436805 -0.8456509 -0.4804884 0.2323909 
-0.1911387 0.9456601 -0.2499323 -0.196273 0.9471636 -0.2536887 
-0.3379667 0.4619119 -0.8169371 -0.3536823 0.458939 -0.8150362 
-0.04913792 -0.5842146 -0.8070574 -0.01949509 -0.5881605 -0.8085092 
0.6854361 -0.5840237 0.4331701 0.6906874 -0.5729547 0.4412187 
0.9517446 -0.1696065 0.252058 0.9569185 -0.1598683 0.2423822 
0.1717256 -0.6752548 0.714234 0.1851795 -0.6640925 0.7243546 
0.102111 -0.7868146 0.6062616 0.122452 -0.7915979 0.5986471 
0.2341866 0.960399 -0.1298444 0.2232115 0.9682734 -0.1123537 
-0.8544652 0.5048183 0.1015493 -0.8523384 0.5150282 0.09091319 
-0.9570035 0.2806111 0.03033593 -0.9532525 0.2963297 0.05914682 
0.02825618 -0.8690699 -0.4876783 0.03742433 -0.8764838 -0.4799746 
-0.6463175 0.3107603 -0.695115 -0.6539252 0.3029337 -0.6932626 
0.3627596 0.7159356 -0.5905154 0.3611499 0.7273077 -0.5836046 
0.8194911 -0.09519865 -0.559103 0.8206279 -0.09953768 -0.5627274 
-0.3779227 0.7717992 0.5071167 -0.3873366 0.7821792 0.4880227 
0.8491362 -0.342373 -0.3963175 0.8612359 -0.3236799 -0.3917959 
0.2845147 -0.2298871 0.927961 0.2754778 -0.2057167 0.9390381 
0.2739725 -0.5265558 -0.8014436 0.2630322 -0.529759 -0.8063309 
0.584217 -0.07608885 0.8049202 0.5624497 -0.07546255 0.8233807 
0.005708557 0.9964697 -0.04684484 -0.001454974 0.9985656 -0.05352312 
0.3522189 0.6709141 -0.6473186 0.3710379 0.6666203 -0.6464893 
-0.1086449 0.2489311 -0.9587789 -0.09937182 0.2541686 -0.9620414 
-0.9354833 -0.1445752 -0.3120083 -0.933888 -0.1385372 -0.3296371 
-0.5420952 -0.05600496 0.8344752 -0.5542769 -0.0708289 0.8293132 
0.1398687 -0.6259174 -0.7629569 0.1464082 -0.6301844 -0.7625171 
0.529532 0.8420134 0.0647275 0.5292504 0.8460541 0.06392567 
-0.9246857 0.3682407 0.05667456 -0.9284286 0.3676432 0.05346666 
0.1738912 -0.5127959 -0.8389605 0.1826151 -0.5076606 -0.8419813 
-0.2515332 -0.06509604 -0.962802 -0.2519707 -0.06944578 -0.9652399 
0.825682 -0.3817982 -0.409939 0.8191081 -0.3755002 -0.4336607 
-0.4346175 0.8816612 0.1587403 -0.4400131 0.8818733 0.1693758 
0.06812813 -0.5786212 0.8090813 0.05626687 -0.5609084 0.8259636 
-0.9549009 -0.2283181 0.1742101 -0.9573119 -0.2258335 0.180425 
0.5392647 -0.8286685 0.1375731 0.5483917 -0.8271828 0.1226182 
0.5335155 -0.5059216 -0.6723394 0.541205 -0.4932808 -0.6810075 
0.0289889 0.9668924 -0.24276 0.03731922 0.969846 -0.2408446 
-0.9233601 0.1559732 0.3387231 -0.9280687 0.1518077 0.3400633 
0.1847514 -0.9738224 0.1055976 0.2000348 -0.9738389 0.1078143 
0.1982599 0.7788258 -0.5916793 0.1898429 0.7665243 -0.6135147 
0.7039015 0.03112277 -0.7065786 0.7203631 0.04714331 -0.6919931 
-0.7231782 -0.4790757 -0.4913471 -0.7074958 -0.4845495 -0.5144526 
-0.2934849 0.6147463 -0.7278602 -0.3033788 0.6172489 -0.7259236 
0.3003795 0.6916503 0.6552454 0.2918894 0.691117 0.6611791 
-0.9726974 0.2061473 0.06655066 -0.9769684 0.2037382 0.0634309 
0.8643834 -0.4384656 -0.2407883 0.8632339 -0.4476575 -0.2333025 
-0.7112194 0.6740331 0.1875058 -0.7163796 0.6624036 0.2191388 
-0.3869264 0.5469077 0.7373011 -0.3895828 0.5372174 0.7480794 
0.1184002 -0.08379236 -0.9863059 0.1220973 -0.08213366 -0.9891139 
0.4120843 -0.2633639 0.870505 0.398131 -0.2474713 0.8833174 
-0.02633323 -0.7560602 -0.6490546 -0.010535 -0.7609369 -0.6487404 
0.3351811 0.4139844 -0.8428353 0.3194436 0.4322352 -0.8432844 
-0.6198395 0.2653216 -0.7352042 -0.6223876 0.2537439 -0.7404375 
0.03637713 -0.8606778 0.5027508 0.05104108 -0.8570082 0.5127689 
0.7246739 -0.3307992 0.6005933 0.7302994 -0.3309214 0.5976235 
0.08988437 -0.8657408 0.4873566 0.07616235 -0.8695431 0.487949 
0.4646588 -0.8755457 0.09873062 0.4652284 -0.8776053 0.1156353 
-0.02411797 0.7943816 0.601459 -0.01277001 0.8043419 0.5940296 
0.9059535 0.2889674 -0.3018312 0.9095581 0.2894384 -0.2982105 
-0.01139008 0.9909437 -0.1225039 -0.009928971 0.991899 -0.1266406 
-0.5846247 -0.348657 -0.7273991 -0.586491 -0.3386687 -0.7357526 
0.5517133 -0.6255724 -0.5469218 0.5680091 -0.6121842 -0.5500876 
-0.7617109 -0.529442 -0.3679936 -0.7521174 -0.5424201 -0.3742992 
0.5061781 -0.7302765 0.451668 0.5280675 -0.7179694 0.4535028 
-0.3974749 -0.473057 -0.7822272 -0.3880141 -0.484565 -0.7839909 
0.9930054 -0.09090791 0.01396939 0.996604 -0.08123306 0.01348043 
-0.4537886 -0.3090972 0.8319727 -0.4599738 -0.3222006 0.8274121 
0.3161243 0.6741432 -0.6645278 0.3140872 0.6645261 -0.6780519 
-0.432126 0.7949187 -0.4198127 -0.436399 0.8023018 -0.4072688 
0.7348861 -0.3464374 -0.5783531 0.7517317 -0.3411808 -0.5643538 
-0.5590527 0.01262336 -0.8258914 -0.5768729 0.008439494 -0.8167903 
0.159913 0.6851869 0.7082785 0.1566885 0.6858136 0.7107099 
-0.3779761 0.7922794 0.4723012 -0.3778157 0.8069193 0.4540226 
-0.2929041 0.88118 0.3615165 -0.3048846 0.8806198 0.362704 
0.681179 0.6791978 0.2619222 0.6656011 0.697372 0.2657961 
-0.04866199 0.9841624 0.1516658 -0.06028242 0.9867113 0.1508866 
0.817619 0.1858987 0.5403938 0.8185022 0.2036626 0.5371924 
0.3333431 0.3478853 -0.8724595 0.3286693 0.3290715 -0.8852618 
0.9507459 -0.1079858 -0.2780541 0.9594634 -0.08294871 -0.2693503 
0.7522593 -0.6009859 0.2586812 0.7524793 -0.6005896 0.2703092 
-0.1238723 -0.4756179 -0.8672289 -0.112973 -0.4697859 -0.8755217 
-0.7668793 0.5946906 -0.2316573 -0.7634553 0.597972 -0.2440606 
-0.1573814 -0.280095 -0.9453902 -0.1615023 -0.2856132 -0.9446386 
-0.61563 0.7587464 0.2011971 -0.6249893 0.7588791 0.1830053 
0.2897313 -0.8575776 0.4207518 0.3080713 -0.8536593 0.4199499 
0.7604196 0.180373 0.6188369 0.7581953 0.1671393 0.6302415 
-0.3588191 0.928562 0.05322461 -0.3421596 0.9384679 0.04695632 
-0.835102 0.5047503 0.2017023 -0.8368796 0.4993389 0.2242615 
-0.02521369 -0.4509872 -0.8875899 -0.02246078 -0.4552136 -0.890099 
0.6968506 0.3429108 0.6261268 0.7080585 0.3253437 0.6267413 
-0.5369328 0.8415405 -0.01767272 -0.5276324 0.849088 -0.02556881 
-0.7316788 -0.3356392 0.5885786 -0.7416212 -0.3314069 0.5832388 
0.3564669 0.3210948 -0.873437 0.3489721 0.3139751 -0.8829712 
0.4852055 -0.8341234 0.2471011 0.4839475 -0.844331 0.2300001 
0.1377466 -0.8545685 -0.4981201 0.1388665 -0.8440673 -0.5179445 
0.2977637 -0.1464182 0.9399825 0.2952315 -0.1532616 0.9430532 
-0.2878547 -0.3235198 -0.8979428 -0.292913 -0.3275892 -0.8982691 
0.1469517 -0.9852079 -0.01270997 0.1553254 -0.9878629 0.0009243329 
0.08212151 -0.4070306 -0.9088966 0.09885766 -0.4126541 -0.9055074 
-0.5618805 0.742812 0.3553583 -0.5512435 0.7581106 0.3484235 
-0.197037 -0.9762574 0.007924033 -0.1939316 -0.9809973 0.005905069 
-0.4174098 0.8767636 -0.2278433 -0.430009 0.8732855 -0.2290518 
-0.7182108 0.6850543 -0.08817017 -0.7230497 0.6851228 -0.08835192 
0.09576374 0.9766343 -0.1743357 0.07254283 0.9831512 -0.1677832 
0.1866834 -0.3096009 0.9291064 0.1817182 -0.3248961 0.9281277 
0.567883 -0.5801733 -0.5761511 0.5832235 -0.5769145 -0.5718566 
0.2990358 -0.2826485 -0.9098349 0.2983665 -0.2867858 -0.9103469 
-0.221119 -0.927611 0.2911716 -0.2027091 -0.9375041 0.2828338 
-0.9731227 0.2069973 -0.05464453 -0.9771566 0.2048711 -0.05650534 
-0.0007207226 0.0630872 0.9941633 -0.001867131 0.08187292 0.9966411 
0.1970909 -0.7169324 0.6641698 0.2043233 -0.736621 0.6447026 
0.2761132 -0.7051637 0.650882 0.2628932 -0.7143106 0.6485735 
0.8626673 0.4471483 -0.2284993 0.8683428 0.4453716 -0.2182312 
-0.7822623 -0.4543602 -0.4186587 -0.7948235 -0.4496081 -0.407564 
0.5204996 -0.8437048 0.1095313 0.520998 -0.8488109 0.08989482 
0.09495021 -0.8965375 -0.4243082 0.09374779 -0.8962569 -0.4335145 
-0.315257 -0.77374 -0.5443908 -0.3078633 -0.7688817 -0.5603938 
0.6826206 0.5585136 -0.4645368 0.6787435 0.5499161 -0.4867233 
0.2846873 0.441804 0.8468116 0.2790827 0.4434483 0.8517432 
-0.8437909 0.1972957 0.4924062 -0.8503916 0.217314 0.4791751 
-0.3587728 0.6564654 -0.6583385 -0.3656356 0.6558764 -0.6604066 
-0.6543298 0.1906216 0.7273525 -0.6515809 0.1967503 0.7326198 
0.08446787 0.3283719 0.9362221 0.07751497 0.3210202 0.9438949 
-0.3635016 -0.742503 -0.5568944 -0.3708901 -0.7374176 -0.564496 
-0.3365879 -0.8226361 0.4503454 -0.3406891 -0.8219728 0.4563898 
0.3577416 0.7026418 0.6101145 0.3593336 0.7069795 0.6091465 
0.3514444 -0.9312072 -0.05455451 0.3382656 -0.9403868 -0.03534362 
-0.1568813 0.2320842 0.9576622 -0.1567718 0.2223279 0.9622853 
0.7134304 0.5809386 -0.3840266 0.7280902 0.5811618 -0.3635047 
0.5883015 0.731688 0.3361201 0.5884346 0.7369113 0.3327258 
-0.1701656 -0.6099309 0.769875 -0.1648501 -0.6065096 0.7777986 
-0.6093494 -0.32931 -0.7168558 -0.6011334 -0.3329098 -0.7265051 
0.1853636 0.9783435 -0.0230356 0.1901604 0.981634 -0.01529506 
-0.4574096 -0.8177289 0.3416919 -0.4496605 -0.8188772 0.3567149 
-0.3315871 -0.9292321 -0.1377193 -0.3370055 -0.9321649 -0.1322724 
0.6373508 -0.4038701 -0.6516122 0.6499917 -0.4054455 -0.6427479 
0.206873 0.6644825 -0.7138921 0.2063325 0.6630194 -0.7196056 
0.1455791 -0.9544241 -0.251147 0.1698156 -0.9483529 -0.2679355 
0.6441035 -0.6645703 0.3699614 0.6583226 -0.6553509 0.370306 
0.7832568 -0.6163469 0.05008913 0.7927312 -0.607758 0.04698461 
-0.9892781 -0.07428238 -0.1121799 -0.9924588 -0.0626436 -0.1053624 
-0.1058164 0.2030561 -0.9695864 -0.1015741 0.2101862 -0.9723706 
0.3552665 -0.9008284 0.2406843 0.3345472 -0.9123607 0.2359582 
0.4712634 0.6561936 0.5829868 0.4932086 0.6485347 0.5797827 
-0.130621 0.5900927 0.7926474 -0.1516678 0.5981761 0.7868814 
0.2418532 0.115006 -0.9613309 0.2546343 0.1049245 -0.9613284 
-0.08614184 -0.7971311 -0.5946106 -0.08782159 -0.8169487 -0.5699844 
-0.05895557 -0.7546319 0.6495282 -0.0509505 -0.7545969 0.6542076 
0.7834157 -0.5435255 0.2919119 0.7748773 -0.5613515 0.2906024 
0.3914324 -0.8367343 -0.3807459 0.4081909 -0.8292955 -0.38164 
-0.7563507 0.2935741 0.5788019 -0.7542018 0.3090017 0.5793942 
-0.01125456 -0.3191778 -0.9437037 -0.01485218 -0.345767 -0.9382029 
0.9683614 0.2255828 -0.07132557 0.97394 0.2164048 -0.06789673 
0.9847708 0.002004541 0.1493975 0.9876814 0.0007718178 0.1564765 
0.7742565 -0.4082562 0.4780268 0.7766862 -0.3946309 0.4909431 
-0.4455992 0.7098836 -0.5397383 -0.460375 0.7069134 -0.5369621 
-0.7321857 0.6590897 -0.1543535 -0.7396315 0.6540048 -0.1588177 
-0.02587365 0.9782113 -0.189771 -0.03437391 0.9809156 -0.1913716 
0.1480759 0.8677019 -0.4712989 0.1496367 0.8773105 -0.4559992 
0.3258364 0.8085257 0.4847952 0.3336577 0.8170575 0.4702016 
0.08415002 0.1125533 -0.9885756 0.08569217 0.1122257 -0.9899809 
0.3437373 -0.768119 0.5367123 0.3398943 -0.7609296 0.5526827 
-0.05347252 0.6694307 -0.736639 -0.04718242 0.66778 -0.7428618 
-0.7581479 0.6394907 0.1087945 -0.7538919 0.646455 0.11723 
-0.2321208 0.957032 -0.1609072 -0.2195938 0.9636984 -0.1518685 
0.2711582 0.9236329 0.2619258 0.2733562 0.9310369 0.2417573 
-0.2750946 0.526858 -0.800919 -0.270903 0.5476414 -0.7916442 
0.6383142 -0.7009904 0.3066252 0.6339727 -0.7136791 0.2978938 
-0.07304782 -0.9912982 -0.07318747 -0.06622164 -0.9955044 -0.06771792 
0.9133902 -0.2780012 0.289909 0.9086737 -0.2786018 0.3109552 
-0.6520172 -0.1623594 0.7363563 -0.6475604 -0.1732843 0.74205 
0.8950549 0.1922019 0.3951932 0.8893778 0.1826527 0.4191004 
-0.683413 0.6948616 0.2096772 -0.681531 0.6971809 0.2223833 
-0.1417087 0.4633853 -0.8705359 -0.1399563 0.4590726 -0.8773053 
-0.567831 0.7951131 -0.200396 -0.5590703 0.8069375 -0.1905056 
-0.9302438 -0.3277739 -0.1492516 -0.9303693 -0.3307187 -0.1582344 
0.7566307 -0.3746863 -0.5279041 0.7562988 -0.3860837 -0.5281585 
0.1951278 -0.8050761 -0.5572386 0.1871926 -0.8111455 -0.5540775 
-0.3470828 -0.04333257 0.9330227 -0.3460809 -0.05664621 0.9364931 
-0.8065695 -0.1954123 -0.5528761 -0.8038877 -0.2081944 -0.5571533 
0.152587 0.8433133 -0.5111377 0.1578539 0.8342851 -0.5282523 
-0.9726063 -0.2161959 0.02664706 -0.9771984 -0.209892 0.03207236 
-0.03787046 -0.6469555 0.7575217 -0.03496182 -0.6472008 0.7615175 
-0.2839086 -0.6990517 -0.6546432 -0.2777529 -0.6854972 -0.6730134 
-0.4569437 -0.2948283 -0.8360847 -0.465641 -0.3073678 -0.8298815 
0.8912851 0.4413034 0.06475426 0.894177 0.4423617 0.06901985 
-0.6562455 0.1527349 -0.7348918 -0.649036 0.1539659 -0.7450145 
0.8803506 -0.4189076 -0.2074691 0.8908252 -0.4115148 -0.1925775 
0.4522328 -0.3554958 -0.8139311 0.4492927 -0.3614089 -0.8170187 
-0.3560925 -0.7901496 -0.4953907 -0.363612 -0.8035703 -0.4712337 
0.7415896 0.58539 0.3172387 0.7452993 0.5849081 0.3200181 
0.4803469 -0.6565627 -0.5747662 0.4922383 -0.6446831 -0.5848805 
-0.5594406 -0.6204113 -0.5443556 -0.5572852 -0.6154802 -0.5573306 
-0.8423679 0.1228873 -0.5207307 -0.8461794 0.1063264 -0.5221831 
-0.07673769 0.589534 0.8010185 -0.08566303 0.5802777 0.8099011 
0.3478117 0.4668509 -0.8094301 0.3592151 0.4683326 -0.8072355 
-0.4105321 0.4671945 -0.7793478 -0.3865603 0.4898846 -0.7813989 
0.4001473 -0.8030756 -0.4334665 0.4009644 -0.8000748 -0.4462151 
0.4246927 0.342626 -0.833944 0.4293981 0.3416694 -0.8359901 
-0.9635198 -0.2655727 0.0007712481 -0.960694 -0.2772193 0.01471306 
-0.2307338 -0.8148137 0.5262594 -0.250626 -0.824086 0.5080048 
-0.3111002 0.5968512 0.7356011 -0.3055699 0.5894335 0.7477936 
-0.8273997 0.509611 -0.2208162 -0.8322588 0.5079486 -0.2221119 
0.4254283 -0.3469597 0.8317861 0.434815 -0.3401881 0.8337913 
0.1961547 -0.9501233 0.2273938 0.2000439 -0.947467 0.2495773 
-0.5302314 -0.5635072 0.6304688 -0.5485125 -0.5682087 0.613411 
-0.02148953 -0.9013682 -0.4270265 -0.03237839 -0.9006206 -0.4333982 
-0.2504964 0.9657061 0.02171652 -0.2490192 0.967509 0.04376921 
-0.2938716 0.2432112 0.9225279 -0.3101497 0.2334967 0.9215674 
0.07873435 -0.5527556 0.8252627 0.08462056 -0.5457035 0.8336948 
-0.6902599 -0.3997224 0.599256 -0.68278 -0.4149691 0.6013418 
-0.5006718 -0.7600375 0.405416 -0.5174647 -0.7548458 0.4030363 
0.1234088 0.01433536 -0.9907346 0.1218117 0.02976652 -0.9921069 
0.7166777 0.09417935 0.6857015 0.7134416 0.08187 0.6959156 
-0.8529089 -0.363202 -0.3711659 -0.8569288 -0.3646375 -0.3642975 
0.6326574 0.2244954 0.736133 0.6350952 0.2173347 0.7412286 
-0.7198424 0.6435929 -0.2476832 -0.7326004 0.6414532 -0.2276721 
0.5312849 -0.4288189 -0.7259724 0.5226604 -0.4369357 -0.7320611 
-0.3728922 -0.6766066 0.6296586 -0.3748862 -0.6799349 0.6301976 
-0.6085068 0.5785798 0.5365384 -0.6075753 0.5767935 0.5460418 
-0.2069167 -0.8599907 -0.4607573 -0.21031 -0.8599435 -0.4650451 
-0.3745697 -0.9225459 -0.05088372 -0.3650768 -0.9303414 -0.03440635 
-0.2558476 -0.3738341 -0.889737 -0.2719351 -0.3818322 -0.8833206 
-0.9719769 -0.05144741 0.2124633 -0.977753 -0.06338726 0.199953 
-0.8128155 -0.5766505 0.02298253 -0.8099999 -0.5858054 0.02705878 
-0.3391499 -0.7456785 0.5674769 -0.3219179 -0.7513134 0.5761049 
-0.3231657 0.3061372 0.8922241 -0.3284024 0.3104549 0.8920593 
0.4619082 0.4469654 -0.7640866 0.4724439 0.4467181 -0.7597629 
0.002480229 -0.5776427 0.811956 -0.008779409 -0.5975274 0.8018005 
-0.09479794 -0.8832494 0.4525642 -0.08236931 -0.8915248 0.4454199 
-0.870066 0.2862294 0.3943051 -0.8693435 0.294383 0.3969643 
0.9611998 -0.09167983 -0.2445976 0.9662881 -0.07646797 -0.2458456 
-0.3584296 -0.1666097 0.9159071 -0.3588853 -0.1854446 0.9147741 
0.4362782 0.626039 -0.6398134 0.43312 0.6244806 -0.6499469 
0.9287626 -0.1328913 0.3350235 0.9350266 -0.1334466 0.3285076 
-0.4835023 -0.3092574 0.8157485 -0.4863329 -0.2987494 0.8211146 
-0.7636949 -0.1968041 0.6109066 -0.76824 -0.1775607 0.6150444 
0.2583262 -0.8747527 0.405425 0.2683731 -0.8767975 0.3990013 
-0.63947 -0.5026319 0.5793077 -0.6212767 -0.4994662 0.6037787 
0.5854872 0.1154229 -0.7987828 0.5758862 0.1258059 -0.8077921 
-0.3045152 0.8318857 0.4574248 -0.3051524 0.8303369 0.466286 
0.6196922 -0.2695442 0.7337454 0.6120957 -0.271497 0.7427169 
0.479345 0.1385804 -0.8658351 0.4622238 0.1409145 -0.8754954 
0.6211216 -0.774334 0.1053588 0.6357188 -0.7628956 0.1176938 
0.5361654 0.5596954 0.6283467 0.5503935 0.5608571 0.618471 
0.9623764 0.1374399 -0.222841 0.9660081 0.1154231 -0.2313139 
0.97009 -0.07227296 0.2130751 0.9708486 -0.07727961 0.2268942 
0.6570873 -0.4083961 -0.6277719 0.6549666 -0.4226981 -0.6263747 
0.1609487 -0.9254709 -0.3359988 0.1677334 -0.9319778 -0.3213768 
-0.3511007 0.3950278 0.8466857 -0.3351688 0.4148684 0.8458995 
-0.2143635 0.8499917 -0.4744018 -0.2086419 0.8529273 -0.4785225 
0.6573205 -0.7255355 0.1904628 0.649006 -0.7364773 0.1907683 
0.632587 0.7416244 0.2139249 0.6383975 0.7417865 0.2054297 
-0.3331479 0.928858 -0.1364546 -0.3292943 0.9350063 -0.1316383 
-0.1510069 0.8314818 0.5289156 -0.1500019 0.8310713 0.5355557 
-0.6009175 -0.6976729 0.3864638 -0.594561 -0.6929151 0.4078799 
-0.850131 -0.3255187 0.4062669 -0.8548656 -0.3124273 0.414239 
-0.1811034 -0.5118526 -0.8375057 -0.1979941 -0.5051617 -0.840006 
-0.5589678 0.5338417 0.6287038 -0.5800687 0.5282756 0.6200365 
-0.07191097 0.9134012 0.3929406 -0.0753652 0.9103147 0.4069979 
-0.5427243 0.2617433 0.7944703 -0.5401939 0.2653914 0.7985975 
0.7508197 -0.6432238 -0.1286799 0.7551213 -0.6416631 -0.134389 
-0.4092661 -0.496629 -0.7609016 -0.4036236 -0.52413 -0.7499171 
-0.9282159 -0.3545584 -0.08302088 -0.9347861 -0.3468735 -0.07650907 
0.2144503 -0.8767393 0.4235697 0.2047346 -0.8888656 0.40988 
0.4779155 0.6319366 0.6036026 0.4862256 0.6292443 0.6063302 
-0.8640378 -0.3791875 -0.3210111 -0.8753235 -0.3667491 -0.3151252 
-0.3101634 -0.2016655 0.925541 -0.3054888 -0.1885322 0.9333446 
-0.4249741 -0.9004458 0.02441831 -0.4296663 -0.9029827 0.003018312 
-0.1375284 -0.02446568 -0.9884149 -0.1585938 -0.04013196 -0.986528 
0.9704791 -0.22623 -0.0269194 0.9751709 -0.2177731 -0.04020858 
-0.3807199 0.8528862 0.3527704 -0.3728236 0.8654994 0.3345347 
0.4438073 -0.4424816 -0.7764228 0.4385182 -0.4367567 -0.7854587 
-0.1867185 0.9009993 -0.3830351 -0.2009333 0.9025368 -0.3808585 
0.3649902 0.8792562 -0.2952809 0.3703819 0.8780388 -0.3030927 
-0.1488519 0.01142647 -0.9875631 -0.1580776 0.02118844 -0.9871994 
-0.9139388 -0.2265762 0.3264613 -0.9210348 -0.2322614 0.3126493 
-0.3794133 0.9206958 0.01059107 -0.3757671 0.926711 0.002392113 
0.712603 0.6822378 0.1560521 0.7244855 0.6773431 0.1277777 
0.01013518 0.1263644 0.9883088 0.003473222 0.1280796 0.9917578 
0.4301004 0.7942772 -0.4228011 0.4244234 0.8015283 -0.4212093 
0.7624069 0.6239097 -0.1496111 0.7597619 0.6285725 -0.1663088 
-0.7756607 -0.4495583 0.437501 -0.7803377 -0.4493082 0.4349659 
0.4022342 -0.09369486 0.9070434 0.4218372 -0.0741763 0.9036323 
0.7463636 0.6011326 0.2736607 0.7539274 0.5987356 0.2703871 
0.7203082 -0.5995047 -0.3385723 0.7217008 -0.5946426 -0.3543277 
0.4751314 0.471448 0.7400406 0.4781165 0.4765084 0.737797 
-0.1822792 -0.9679006 -0.1507588 -0.1861198 -0.9722073 -0.1420297 
-0.3346117 -0.8712338 -0.3504085 -0.3333892 -0.8803715 -0.3373392 
0.9152525 -0.1137365 -0.3793144 0.9196852 -0.1283961 -0.3710709 
-0.8154584 0.1161544 0.5621946 -0.8240905 0.1037807 0.5568702 
0.7982668 -0.02122907 -0.5960076 0.7992035 -0.01048203 -0.6009692 
0.00906417 0.6060539 -0.7907784 0.01032923 0.6122587 -0.7905901 
0.9395224 -0.2307864 0.2389113 0.9445702 -0.2373963 0.2267824 
0.1722816 0.6901118 -0.7012042 0.1754029 0.6911326 -0.7011203 
-0.3362882 -0.917744 0.1937477 -0.3323977 -0.9244365 0.186893 
-0.8938209 -0.2749088 0.3459425 -0.8990225 -0.2753878 0.3404707 
-0.3196774 0.7980131 -0.5065845 -0.3062542 0.8021631 -0.5125844 
0.9926472 0.08840279 0.02467139 0.9968659 0.07452554 0.02654095 
0.3640682 -0.9220285 -0.1080559 0.3450699 -0.9294978 -0.1302332 
-0.005395953 0.2091255 0.9740973 0.001729494 0.1966015 0.980482 
0.6606984 -0.3421274 -0.6634808 0.6648088 -0.3489383 -0.6605085 
0.3670554 0.5863156 -0.7199918 0.3723554 0.5768827 -0.7270198 
-0.7964393 0.3654846 -0.4748662 -0.7878195 0.3848636 -0.4808539 
-0.6872377 -0.4310941 0.5787717 -0.6956256 -0.4369734 0.5702275 
0.7050946 -0.009019047 0.7079158 0.7172467 -0.009479517 0.6967549 
0.06989289 0.9501112 -0.2916853 0.07210327 0.9530085 -0.2942379 
-0.5005213 -0.8374539 0.2041039 -0.5062 -0.8334054 0.2218041 
-0.1732387 -0.716695 0.6725601 -0.1718685 -0.71822 0.6742561 
-0.06307046 0.7186604 0.6875439 -0.0780471 0.7161729 0.6935453 
-0.635599 0.429706 0.6351079 -0.6422629 0.4428803 0.625584 
-0.8424943 0.08995932 -0.5252212 -0.8552194 0.07838142 -0.5123048 
-0.225583 -0.8792886 -0.4133309 -0.2122302 -0.8833329 -0.4179489 
-0.6606094 -0.6530098 0.3606791 -0.6606159 -0.6612574 0.3554227 
-0.06783327 -0.5203044 -0.847558 -0.07337155 -0.5062737 -0.859246 
-0.9542002 0.03200666 0.287416 -0.9534162 0.06281274 0.295046 
0.7348736 -0.6459758 0.1896303 0.7478791 -0.6343969 0.1954932 
-0.2899201 -0.2057408 -0.9309569 -0.2944626 -0.1860614 -0.9373756 
0.5738838 -0.2935271 -0.7595525 0.5820292 -0.2965402 -0.7571696 
-0.8760592 -0.1486544 0.4496613 -0.880255 -0.1385073 0.453836 
-0.02747956 -0.7496582 0.6567539 -0.03865672 -0.7568011 0.6525012 
-0.9020802 0.07636753 -0.4202952 -0.8954505 0.06249261 -0.4407529 
-0.2008166 -0.8194296 -0.5314397 -0.2066681 -0.8317217 -0.5152935 
0.4119227 -0.9010759 -0.1140598 0.4232588 -0.8968244 -0.1286776 
-0.9369049 -0.1284461 0.3147963 -0.9387894 -0.1104095 0.3263191 
-0.8666754 0.3841398 -0.3075648 -0.8751199 0.3749266 -0.3059334 
-0.1226015 0.9331676 0.3318441 -0.1127698 0.9393452 0.3239036 
-0.3299139 -0.1296342 0.9331332 -0.3319594 -0.1270889 0.9346932 
-0.7316489 0.1471452 -0.6608976 -0.7398493 0.15307 -0.655128 
-0.4535789 0.5316783 0.7093986 -0.4557951 0.5332114 0.7126966 
-0.4316047 0.8616329 -0.2545308 -0.4578706 0.8549189 -0.2438609 
0.08772908 0.827072 -0.5486794 0.09566689 0.8288017 -0.5513036 
0.2707716 0.3040592 0.91046 0.2550648 0.3094125 0.9160818 
-0.1605722 -0.9466653 0.2670465 -0.1706717 -0.9464138 0.2741753 
-0.3673019 -0.678772 -0.6306462 -0.3699022 -0.6748425 -0.6385609 
0.9190728 -0.3814599 -0.068979 0.926168 -0.3703901 -0.07088186 
-0.1610452 0.9612552 -0.2148535 -0.1706651 0.9601762 -0.221213 
-0.03795353 0.8913285 0.4443305 -0.04205775 0.8919522 0.4501694 
0.8992916 0.3137192 0.2964948 0.8892023 0.3242455 0.3227759 
-0.9174484 0.1330264 0.3647424 -0.9194282 0.1500967 0.363487 
0.9915382 0.06211761 -0.08365969 0.9959731 0.04308768 -0.07861944 
-0.2229492 0.1417427 -0.9636456 -0.23575 0.1523364 -0.9597998 
-0.5229399 -0.8150443 0.2351344 -0.5184935 -0.8212702 0.2380753 
-0.306588 0.9416479 0.1046748 -0.3131732 0.9447648 0.0966545 
-0.1021251 -0.957685 -0.2575298 -0.08909322 -0.959305 -0.2679483 
-0.5073794 -0.8388184 -0.185314 -0.4949291 -0.8472145 -0.1930617 
-0.1500041 0.8616239 0.4820507 -0.1542932 0.8612279 0.4842315 
0.001860813 -0.8538203 0.5195071 -0.002410992 -0.847526 0.5307484 
-0.2687499 -0.0136046 0.9621111 -0.269891 -0.02251272 0.9626277 
-0.5270457 0.2989055 -0.7920828 -0.5294767 0.2866848 -0.7984148 
0.8401235 0.3344447 0.4199175 0.8414639 0.3323985 0.4259694 
0.0941956 0.7513246 0.6488971 0.09138938 0.751999 0.6527982 
-0.8565414 -0.5052902 0.0770535 -0.8555671 -0.5138737 0.06276077 
-0.7676449 -0.285155 0.5683606 -0.7741351 -0.2936457 0.5607916 
-0.5757153 0.2884938 -0.7600939 -0.5767733 0.2869174 -0.7648601 
-0.5743639 -0.147235 0.8011917 -0.5806046 -0.1313961 0.8035131 
-0.2282501 -0.9706796 0.0202712 -0.2141605 -0.9759404 0.04093414 
0.9217292 0.0753524 -0.37483 0.9270901 0.08071605 -0.3660448 
-0.2093035 -0.9040465 0.3625726 -0.2092929 -0.9052151 0.3698407 
-0.1392848 -0.9325324 -0.3265708 -0.123404 -0.940855 -0.3155365 
0.2023935 -0.6668838 0.7131252 0.200931 -0.6547274 0.7286691 
0.2719411 -0.09012592 -0.9543474 0.2794749 -0.07832432 -0.956953 
0.3491919 0.8462535 0.3967729 0.3319173 0.8524567 0.4039165 
0.4531598 0.8464068 0.2667494 0.4602936 0.8515134 0.2511072 
0.9694248 0.01256444 0.2352716 0.974707 0.01529895 0.2229624 
-0.7948675 0.5302823 0.2842095 -0.7971309 0.5314186 0.2866646 
0.2062794 -0.9746058 0.02900346 0.1963152 -0.9799428 0.03424142 
-0.3317073 -0.6693397 0.6606756 -0.3270972 -0.6661603 0.670252 
-0.9013772 -0.2428235 -0.3520328 -0.9073527 -0.2304126 -0.3515978 
0.461642 -0.2222012 -0.8556195 0.4698778 -0.2264394 -0.8531941 
0.3487286 0.2433891 -0.9016345 0.364001 0.2409465 -0.8996934 
0.7720407 0.4345862 -0.4599069 0.7743986 0.4200456 -0.4731475 
-0.140169 -0.8437945 -0.513389 -0.1464235 -0.8329743 -0.533586 
0.8822509 -0.3813343 -0.2662713 0.8912939 -0.3778186 -0.2506959 
0.01616913 -0.9978489 0.01944618 0.01799687 -0.9992763 0.03350994 
-0.8508995 -0.1374461 -0.50295 -0.8659443 -0.1165988 -0.4863591 
0.1018886 -0.9640545 -0.236747 0.0886741 -0.9643648 -0.2492743 
-0.3786668 -0.505855 0.7699074 -0.3905221 -0.5129905 0.7644169 
0.4429162 0.5678983 0.6881754 0.455597 0.5650113 0.6878907 
0.9593866 0.1780699 0.2052523 0.9634843 0.171048 0.2060108 
0.7034438 0.492415 0.5053233 0.7007993 0.5034705 0.5053689 
0.2785163 -0.4241345 0.8578553 0.2982821 -0.4255311 0.8543718 
-0.5638507 0.03437266 0.8223264 -0.5724698 0.03413882 0.8192148 
0.3187961 0.4719579 0.8195989 0.3388029 0.4485579 0.827048 
-0.6697879 0.3690562 0.6395077 -0.6614947 0.3675073 0.6537302 
-0.3793149 0.2521261 0.886971 -0.3623688 0.2586147 0.8954369 
-0.4890656 -0.3536439 0.794895 -0.4698268 -0.34557 0.812308 
0.0006217323 -0.1206076 -0.9888415 -0.0009433 -0.1072381 -0.994233 
-0.002352533 0.9173302 -0.3966644 0.002008328 0.9125671 -0.408922 
-0.3400626 0.8361567 -0.4225123 -0.3357005 0.8381228 -0.4299482 
0.1570562 -0.8355951 -0.5214243 0.1488277 -0.8302081 -0.5372195 
-0.145961 0.1153268 -0.979351 -0.1502405 0.1043262 -0.9831297 
-0.2829745 0.9477706 -0.1237728 -0.2971633 0.9475458 -0.1176902 
-0.2682864 -0.8821112 0.3799761 -0.2634371 -0.8904448 0.3710917 
-0.6993779 0.5785837 0.4170043 -0.7095231 0.5563377 0.4325108 
0.3483313 -0.9325681 0.03036049 0.3559251 -0.9342883 0.02056001 
0.5016096 0.4395409 0.7407839 0.5223412 0.4437195 0.7281982 
-0.5611165 0.7277709 0.3862974 -0.5477262 0.7363198 0.3972772 
0.9885806 -0.09655148 -0.09515291 0.9917962 -0.09912802 -0.08070946 
-0.7594474 0.6172363 0.18959 -0.7501566 0.6334125 0.1898782 
0.1301578 0.155977 0.9759966 0.1407539 0.1523757 0.9782485 
-0.7654995 0.3446305 0.5369329 -0.7587263 0.355974 0.5455428 
-0.5866073 0.7183055 0.3700043 -0.5710433 0.7379409 0.3596565 
-0.6204247 0.1506634 -0.7650769 -0.6329162 0.1675876 -0.7558648 
0.6151369 0.7628137 0.1839431 0.6139057 0.7718608 0.1653805 
0.002815308 0.3196949 -0.9435062 0.005329483 0.342689 -0.9394338 
0.4919147 -0.6771058 0.5402529 0.4940351 -0.6759958 0.5467715 
0.7907425 0.50914 -0.3370971 0.7997724 0.4922408 -0.3436032 
0.2416869 0.7165332 0.6494573 0.2280198 0.7113221 0.6648517 
-0.09051564 -0.5259275 0.8419725 -0.08849932 -0.5296241 0.8436031 
-0.3644542 0.6182038 -0.6942059 -0.3613416 0.6227221 -0.6940097 
0.700387 0.3129751 -0.636048 0.7034339 0.3094461 -0.6398625 
0.7254593 0.3442202 0.5921569 0.7278426 0.3480696 0.5908408 
-0.2495952 0.01267062 0.9662809 -0.2413879 0.0243866 0.9701223 
0.9689245 0.1765914 -0.1553477 0.974209 0.1684196 -0.1501726 
-0.4804429 -0.6578773 0.5732558 -0.4941645 -0.6552374 0.5713716 
0.4253598 -0.6696327 0.6055179 0.4328247 -0.6485388 0.626147 
0.9707041 -0.2024779 -0.1142474 0.9757937 -0.1922332 -0.1042742 
0.9733312 0.1800303 -0.1241296 0.9761449 0.1777934 -0.1246224 
0.6928679 0.2819747 -0.6586538 0.7030582 0.2799799 -0.6536975 
0.6294107 -0.5841018 0.5037542 0.6305916 -0.5860424 0.5088306 
-0.737353 -0.4151952 0.5263039 -0.7320394 -0.4176612 0.538217 
-0.7917798 -0.5396024 -0.2759326 -0.7941372 -0.5366917 -0.2851458 
0.02674513 0.9741969 0.2086205 0.03188274 0.9748293 0.220661 
0.5767787 -0.8091167 -0.08071411 0.5710944 -0.8156397 -0.09264538 
-0.593231 0.0577792 -0.8004954 -0.5950611 0.04769793 -0.8022638 
0.0797646 0.04502435 0.9922347 0.07953876 0.05061636 0.9955459 
0.3913987 -0.1283404 0.908991 0.4033324 -0.1107728 0.9083239 
0.7777675 -0.1083492 0.6161222 0.7807483 -0.1354958 0.6099779 
0.0678795 -0.4662127 -0.8774577 0.06304821 -0.4688347 -0.8810329 
0.2261739 0.4855639 0.8396556 0.232936 0.475528 0.8483007 
0.0327461 -0.1308192 0.9878967 0.01300785 -0.1264117 0.9918926 
0.1636952 0.9686763 -0.1681382 0.1585132 0.9756738 -0.1514406 
-0.911465 0.1003212 -0.395398 -0.9153169 0.1184915 -0.3849089 
-0.8348507 0.00712256 0.5469281 -0.8283072 0.009837574 0.5601879 
-0.1826672 -0.3893584 -0.8995005 -0.1689203 -0.3970739 -0.9021077 
-0.2363192 0.4844402 0.8374972 -0.23031 0.4699235 0.8521321 
-0.2723358 -0.4145077 0.8648723 -0.2752119 -0.4289127 0.8604023 
0.9508667 0.2056281 0.216629 0.9579058 0.2006994 0.2052712 
0.1972698 -0.1839577 0.960386 0.1953398 -0.1975611 0.9606311 
0.3334417 0.8490786 -0.4034497 0.3227188 0.8559775 -0.4039248 
-0.3911014 -0.9042536 -0.1513941 -0.3899117 -0.9050434 -0.1698986 
0.8343751 0.5476352 -0.0006248783 0.827555 0.561321 -0.008450711 
0.5699163 -0.7866182 0.2252851 0.5728092 -0.7902306 0.2177733 
0.1425601 -0.5426153 0.8255898 0.1362957 -0.5431944 0.8284705 
-0.8316146 -0.1762881 0.5235271 -0.8183827 -0.1890013 0.5427046 
-0.05497252 -0.6572047 -0.7480654 -0.06446362 -0.6632792 -0.7455905 
-0.339331 -0.9345152 -0.06240779 -0.3295735 -0.9427944 -0.05019897 
0.7681068 0.5390751 -0.3398078 0.7746652 0.5456837 -0.3195669 
0.2947474 -0.6528831 -0.6927532 0.2883318 -0.6493286 -0.7037309 
0.7000597 0.5374363 0.4621024 0.7049372 0.5269646 0.4747335 
0.3587089 0.9102293 0.1879548 0.3541912 0.9184435 0.1760971 
-0.2714616 0.8023416 0.524945 -0.2737455 0.8059712 0.5248561 
0.7671772 -0.159623 0.6160511 0.7721867 -0.1579305 0.6154556 
-0.3029232 0.9208802 0.2302642 -0.3066832 0.9265883 0.2176687 
0.8276249 0.3917067 -0.3977375 0.819364 0.3951335 -0.4153459 
-0.7406874 -0.2535991 -0.6190147 -0.7327008 -0.2607857 -0.6286018 
