ply
format ascii 1.0
comment VCGLIB generated
element vertex 1598
property float x
property float y
property float z
element face 0
property list uchar int vertex_indices
end_header
-0.378401 -0.034538 0.461052 
0.00258534 -0.519363 0.0784844 
-0.774479 0.163344 -0.0664522 
-0.528961 0.194551 0.0224494 
0.417996 0.237843 0.0362717 
0.738761 -0.151274 0.131377 
0.493668 -0.429668 -0.164206 
0.0585871 0.231676 0.421384 
0.451248 -0.490672 0.0935572 
0.281951 -0.324552 0.542031 
0.321271 0.162954 -0.403098 
-0.0607569 -0.432117 0.511261 
0.0768307 0.468038 0.0673418 
0.539448 -0.408212 -0.0519569 
-0.518629 -0.214389 0.365215 
-0.0198672 -0.499978 -0.431312 
-0.495085 0.000536203 0.314897 
-0.339445 0.172282 -0.383593 
0.295054 0.013428 0.503615 
0.286047 0.262136 -0.276951 
0.816195 -0.143089 0.0392476 
-0.394801 -0.0161059 -0.440825 
-0.355234 -0.473802 0.318916 
-0.0330348 0.283492 -0.319086 
-0.557499 0.160155 0.071025 
0.232777 -0.313245 0.569059 
-0.61322 -0.274837 0.13283 
-0.3048 -0.400238 0.462992 
0.0678882 -0.507238 0.378959 
-0.298092 -0.0437642 -0.523885 
-0.205272 -0.16993 -0.595791 
-0.363293 0.273964 -0.00576853 
-0.225539 0.295951 0.0978447 
-0.320991 0.280309 0.110262 
-0.378008 -0.469259 -0.293732 
-0.483801 0.19753 0.13368 
-0.622737 0.192992 0.031003 
-0.0638484 -0.512672 0.32171 
0.0619623 0.271015 0.433326 
-0.10446 -0.049049 0.589862 
-0.856734 -0.08081 0.0687533 
0.0132482 -0.519784 0.032814 
0.530456 -0.0187384 0.260962 
-0.297054 -0.0844192 0.538484 
0.534159 -0.321359 0.305358 
0.059314 0.270375 -0.369437 
-0.0859001 -0.515374 0.251309 
0.0603473 -0.51534 0.259609 
0.0458364 0.0964196 -0.541573 
0.00369431 0.246177 0.446018 
-0.341933 -0.497975 -0.279231 
0.429766 -0.431103 -0.291086 
-0.510462 -0.425623 -0.123128 
0.168023 -0.244694 -0.614011 
0.0702672 0.307498 -0.159784 
0.114097 -0.413763 0.525038 
0.120451 -0.518922 -0.0278407 
-0.591594 -0.108656 0.183461 
-0.0245337 -0.364289 -0.584141 
0.0684256 0.20042 0.490986 
0.294923 -0.510371 -0.195545 
0.351907 -0.48559 0.313628 
0.258303 -0.15706 0.572223 
0.405434 -0.14476 0.477695 
0.334992 -0.201242 0.540457 
-0.0695373 -0.0928363 0.607757 
0.00230388 -0.230529 -0.637619 
0.114606 0.27434 0.439877 
-0.127804 0.0591508 0.546652 
0.440752 0.254369 -0.0225808 
-0.473863 -0.133338 -0.406214 
-0.750399 0.134693 0.0592017 
-0.543094 -0.360637 0.222721 
0.399811 -0.484686 -0.253851 
-0.570264 -0.320679 -0.219469 
-0.310872 -0.513344 -0.0575868 
-0.187118 -0.301868 0.594668 
0.361624 -0.471711 -0.312095 
-0.129207 0.11172 -0.523772 
0.105972 0.318917 0.0599862 
-0.601244 -0.0525694 0.0264325 
-0.0977991 0.00115037 -0.573931 
-0.818485 -0.150225 -0.0696532 
-0.36853 0.182965 0.350793 
0.15296 0.288618 -0.249787 
-0.0765535 0.158943 -0.509445 
0.330433 -0.0545625 0.506209 
-0.274146 -0.215181 -0.571306 
-0.400183 0.111885 0.362597 
0.0602489 -0.359761 -0.583414 
0.10188 -0.504209 0.400932 
0.243501 -0.36925 -0.52636 
0.390406 -0.00503635 -0.439627 
-0.606002 -0.120927 -0.131256 
0.576141 -0.0610542 0.18714 
-0.632031 -0.193269 -0.0207174 
0.623008 -0.133186 0.141441 
-0.616539 -0.259932 -0.127884 
0.354258 -0.50987 0.0428264 
-0.890855 0.154164 -0.0387941 
-0.13421 0.288843 -0.257645 
-0.811337 -0.0973069 0.0394189 
-0.0232836 -0.514661 0.281778 
0.444853 0.160567 -0.268747 
0.618997 -0.183909 0.152109 
-0.806627 0.175554 0.0453877 
0.426055 -0.497189 -0.132206 
0.4385 -0.0573834 0.420019 
0.468343 -0.375842 0.333786 
-0.135663 0.236366 0.400292 
0.538179 0.081163 0.124065 
-0.381624 -0.198596 0.504323 
-0.545931 0.187578 -0.0481419 
-0.307062 -0.478811 -0.36229 
0.319454 -0.363707 -0.492671 
0.860826 -0.0254116 -0.0418183 
-0.590986 -0.061549 0.127269 
-0.536708 0.0952255 0.0870634 
0.961277 0.257929 0.0281962 
-0.178592 0.237573 0.381115 
-0.218576 -0.0227487 0.5495 
-0.823014 0.104461 -0.00874247 
0.637952 -0.236561 0.13059 
0.129714 -0.312825 -0.601779 
0.444779 -0.180175 -0.453797 
-0.0265204 0.414302 0.0844183 
-0.846245 -0.113666 -0.0712825 
0.488805 0.0115937 0.315795 
-0.404199 0.166679 0.316965 
0.581184 -0.31753 0.197613 
-0.168148 -0.51715 0.142835 
-0.929855 0.116846 -0.0425038 
-0.104205 -0.508396 -0.360934 
-0.448591 -0.00787139 -0.380271 
-0.426891 -0.377212 -0.38575 
0.0302476 -0.509912 -0.355459 
-0.454399 0.253861 0.133168 
0.512428 -0.309782 0.346939 
-0.451251 -0.330833 0.407911 
0.0288392 0.00290847 0.582259 
0.112637 0.293906 -0.233595 
-0.503994 0.180472 0.0613011 
-0.541207 -0.365863 -0.215448 
-0.593341 -0.308691 0.180754 
-0.317352 -0.00524557 -0.495881 
0.824185 0.198999 0.00819352 
0.206768 0.293067 0.165145 
0.57709 -0.0293556 0.152464 
0.502709 -0.415873 0.182794 
-0.0979891 0.0934973 0.536053 
-0.106921 0.27193 -0.444698 
0.463737 0.250734 0.0895474 
-0.260042 0.293898 0.00392771 
1.01527 0.251099 0.0519941 
-0.245534 -0.296397 -0.572595 
-0.179316 0.301366 0.113673 
0.2268 0.0366598 -0.521925 
0.228091 0.131659 -0.477561 
-0.800762 -0.212793 0.0145928 
-0.0277272 0.241804 0.415061 
0.292125 0.128308 0.445091 
0.35249 0.230204 0.266169 
0.39248 -0.506563 -0.019544 
-0.174757 0.2231 0.453985 
0.615859 -0.292482 0.0875892 
0.0642335 0.286021 -0.299764 
-0.587674 -0.265596 0.223561 
0.424118 -0.377555 0.388869 
-0.157218 0.232706 -0.395364 
-0.166689 -0.514384 -0.238438 
-0.0199546 -0.358009 0.590224 
0.0358868 -0.0913171 0.611825 
-0.584699 -0.346219 -0.122203 
0.613364 -0.290017 -0.110792 
-0.351057 0.0639443 0.435229 
0.46346 0.17328 -0.212899 
-0.576879 -0.0315477 0.159572 
-0.291537 0.282962 0.144404 
-0.470103 -0.0672695 -0.384227 
-0.436273 -0.0392383 -0.413159 
0.137729 0.246039 0.457652 
-0.369796 0.218815 0.321481 
0.458296 -0.491973 -0.0227591 
0.261651 0.29317 0.0264661 
0.438004 0.275131 0.0488676 
-0.441651 -0.420626 0.294955 
-0.0630682 0.477955 0.0565579 
-0.572485 -0.271855 -0.25719 
0.450041 0.0206419 -0.360262 
0.368993 -0.504144 -0.185886 
0.574832 -0.125853 -0.233815 
-0.363123 -0.131887 0.506582 
-0.228827 0.284522 0.220523 
0.543366 -0.19656 0.330556 
-0.383403 0.27374 0.222243 
-0.194669 -0.055871 0.571175 
0.397005 0.0575019 -0.403161 
-0.0449859 0.274138 0.449541 
0.446331 -0.401523 -0.324103 
-0.028593 -0.311743 0.615613 
-0.128457 -0.386168 -0.551419 
-0.81839 -0.126034 0.0669763 
-0.620902 -0.267283 -0.0845284 
0.461663 -0.0441008 -0.382751 
-0.533431 -0.413007 -0.0565637 
0.469344 -0.467177 -0.0992113 
0.871269 0.046261 0.0594141 
0.807853 0.162158 -0.0198239 
0.591796 -0.345511 -0.0709541 
0.129403 -0.150126 -0.612827 
0.983366 0.246314 -0.0327649 
-0.571714 0.0124808 -0.0799125 
0.838084 -0.0945562 0.0271498 
-0.57779 -0.345077 0.167196 
-0.0431605 0.317516 -0.120095 
-0.329328 -0.4685 0.351343 
0.442731 0.00872183 0.37761 
0.0163547 0.282557 -0.326901 
0.504378 -0.428966 0.1405 
0.580643 -0.229711 -0.254893 
0.409331 -0.50287 -0.0851731 
-0.823113 -0.170979 0.0591327 
0.0187291 0.288818 0.288881 
0.541022 0.0673015 -0.145731 
-0.360612 -0.293445 -0.510541 
0.217985 -0.507172 0.320387 
0.835669 -0.0711864 0.0718228 
-0.0682667 0.33941 -0.00086186 
-0.777796 -0.18123 -0.0709897 
0.552709 -0.0282054 0.215506 
0.0507646 0.336599 0.0551851 
-0.560982 0.0469996 -0.0557691 
0.158733 0.310709 -0.0127309 
0.498731 -0.315608 -0.359607 
0.0690712 -0.356119 0.585438 
-0.0521464 0.118596 -0.530778 
-0.248447 -0.277986 0.574937 
-0.0242573 0.309825 -0.161402 
0.451467 0.255284 0.137964 
-0.261136 -0.172801 -0.572828 
-0.433685 -0.486423 -0.175804 
-0.0333424 -0.413309 0.536132 
-0.546869 -0.384611 -0.159445 
0.662085 -0.151593 0.147805 
-0.0942144 0.230552 0.440396 
0.301179 0.271118 0.345582 
0.619937 -0.300245 0.0430559 
0.253585 0.237464 -0.336439 
-0.558367 -0.245549 -0.303355 
0.394276 0.248934 -0.205289 
0.60354 -0.289518 0.174297 
0.0789868 0.33464 -0.00503818 
-0.228429 -0.515262 0.143121 
-0.588081 -0.20577 -0.231722 
0.854484 -0.0544762 0.0281675 
-0.45361 0.00677025 0.364742 
0.133246 0.0625341 0.544577 
0.504943 0.0857244 -0.215688 
0.477829 -0.0351688 0.356918 
0.32914 -0.343187 0.503421 
0.0480354 -0.460194 -0.481187 
0.308477 0.168855 0.409433 
-0.188552 -0.102553 -0.587996 
0.169812 -0.518454 -0.0182747 
-0.799714 -0.10757 -0.024478 
-0.213228 -0.441917 -0.45765 
0.326376 -0.373591 0.476511 
0.539956 -0.141615 -0.323293 
-0.202964 0.12973 -0.488943 
0.0144611 0.480997 -0.0454082 
-0.283468 -0.380247 0.499405 
0.773501 -0.191754 0.0753476 
-0.0458117 -0.448645 -0.493455 
0.592809 -0.330522 0.125102 
-0.161956 0.0840461 0.528096 
-0.430416 -0.422396 -0.306302 
0.13895 -0.518305 0.125562 
0.468469 -0.457568 -0.140376 
-0.0851925 0.308456 0.148705 
-0.58194 -0.359523 -0.0730866 
-0.906494 0.0360652 -0.0716385 
-0.0268574 -0.0504512 -0.600491 
0.0559316 0.100314 0.538499 
0.570534 -0.228267 0.278889 
0.577445 0.0147281 0.029268 
-0.325886 -0.219525 0.549415 
0.343895 0.243908 0.335805 
0.0772954 -0.00249642 -0.578086 
0.013978 0.477401 0.0873992 
0.363953 -0.301748 -0.504805 
-0.863801 0.0355654 -0.0269826 
0.494729 -0.0531035 -0.344581 
0.118305 -0.51896 0.0145866 
0.484805 0.207372 0.0905221 
-0.388411 -0.497798 0.215431 
0.358082 0.139931 -0.387822 
-0.349985 -0.0444833 -0.487012 
0.24894 -0.253501 -0.579456 
-0.417939 0.227959 0.251805 
-0.715749 -0.269357 0.0207234 
0.601669 -0.224061 -0.203075 
-0.0564504 0.206939 -0.489476 
-0.204534 0.27189 0.408786 
-0.155911 -0.440886 0.482809 
-0.117442 0.316775 -0.058602 
0.170845 0.114181 -0.509819 
0.421118 -0.464349 0.241347 
-0.918767 -0.0360935 -0.0564747 
0.297525 -0.500887 0.310899 
0.487184 0.134298 -0.201877 
0.217981 0.295364 0.125824 
-0.111468 0.460156 -0.0138494 
-0.609804 -0.305581 -0.0983733 
0.503661 -0.344692 0.327498 
-0.444154 0.0502707 0.348437 
-0.495492 5.84722e-05 -0.314682 
0.200626 -0.514017 0.224105 
-0.434638 0.248605 -0.18902 
0.267806 -0.0364641 -0.533891 
0.20371 0.287029 -0.222791 
0.0329203 0.422745 -0.0899353 
-0.193834 0.264434 -0.421587 
0.504176 -0.0246537 -0.316997 
-0.584026 -0.0847746 -0.187725 
-0.601423 -0.204018 0.199246 
0.156358 0.273646 0.426667 
0.403929 -0.417693 -0.349431 
0.300085 -0.513841 -0.0431788 
0.614852 -0.224073 0.171369 
0.414982 0.267806 0.200635 
-0.209018 -0.376038 0.534316 
-0.439101 0.14054 -0.290934 
-0.139191 -0.518711 0.0427839 
0.0441169 0.230415 -0.431793 
0.615902 -0.219045 -0.158663 
-0.364762 -0.50577 -0.167294 
-0.431572 0.262357 0.0718683 
-0.0177415 -0.273957 -0.628457 
0.904487 0.230793 -0.0173763 
0.474106 0.196131 -0.159345 
-0.143508 0.24685 -0.454716 
0.0486837 -0.325957 0.605292 
0.438651 -0.463955 -0.199927 
0.486241 0.206282 -0.0835006 
-0.342784 -0.114547 -0.517308 
0.0659072 0.334379 -0.0453834 
-0.438422 -0.498 -0.0356573 
-0.121277 0.184981 -0.491355 
0.373859 0.0556859 0.421873 
-0.0184023 -0.229316 0.635406 
-0.0513072 0.478836 -0.0536309 
-0.00650133 -0.512268 0.333526 
0.48074 -0.41163 -0.248037 
0.160407 -0.411955 -0.516779 
0.309101 -0.509481 0.192563 
-0.613328 -0.164437 -0.144712 
0.260022 0.279792 0.221552 
0.758552 0.0153816 0.0752083 
0.395785 0.267388 -0.242222 
0.501751 0.0994207 0.207425 
0.517869 -0.43293 -0.00290472 
-0.248099 0.13355 -0.468328 
-0.248171 0.000787675 0.528585 
-0.218193 0.0695491 -0.511251 
-0.619761 -0.161405 0.0936383 
0.242616 -0.30105 -0.572069 
-0.212054 -0.154933 0.590937 
0.148164 0.309954 0.0681782 
-0.917746 -0.0823094 0.0146341 
-0.230436 -0.240002 -0.589755 
-0.347503 0.256459 0.271639 
0.0330535 -0.517062 -0.219237 
-0.0246476 0.290931 -0.275376 
0.171826 0.176537 -0.478883 
0.267444 -0.424009 -0.457625 
0.0542304 -0.519493 0.0364807 
0.271501 0.290809 -0.0598343 
-0.534752 -0.0233566 -0.254567 
0.199751 -0.367745 0.545962 
-0.109932 -0.450772 0.482509 
-0.00259643 -0.433993 0.516638 
0.0184263 -0.168441 0.630215 
-0.126492 0.297066 0.2043 
0.224172 -0.169152 -0.587861 
-0.506304 -0.26066 0.375723 
-0.49146 -0.234342 0.402739 
0.564767 -0.177436 0.281547 
-0.357312 -0.352129 -0.475687 
0.21901 0.194154 0.450304 
0.346181 -0.110876 0.513656 
-0.0474893 -0.517549 0.204921 
-0.54026 0.0293672 -0.190301 
-0.403897 -0.087905 -0.462783 
0.098346 0.3008 -0.191647 
-0.314215 -0.509282 0.189365 
0.164343 0.19601 0.47209 
0.675238 -0.0426828 -0.0235604 
0.435712 0.245337 -0.0846541 
0.24688 0.285868 0.183804 
0.541056 -0.202241 -0.334352 
0.835941 0.125302 -0.0743808 
0.591541 -0.158584 -0.212732 
-0.32559 0.275348 -0.303055 
0.199087 -0.399636 -0.515673 
-0.498682 -0.423735 0.169494 
-0.789398 0.117211 -0.0352117 
0.154565 -0.518329 -0.101204 
-0.418989 -0.329583 0.443583 
0.683951 -0.0485485 0.0736104 
0.221414 -0.51194 -0.254086 
-0.315202 -0.496739 0.321477 
-0.498677 -0.347105 -0.331848 
0.154146 -0.455901 0.464215 
0.572573 -0.176627 -0.262594 
0.161025 0.250423 -0.412133 
-0.448989 -0.242057 0.454165 
-0.911704 0.0782496 -0.068786 
-0.424862 0.0153472 0.396494 
-0.133765 -0.0238689 0.577734 
-0.0293536 -0.51874 -0.138955 
-0.600058 -0.102034 0.144118 
-0.44403 0.253004 0.00111496 
0.183244 -0.516064 0.168451 
-0.918767 0.128127 0.0424911 
0.613471 -0.261947 -0.148545 
0.480082 0.146001 0.205338 
0.152488 0.0239535 0.557586 
-0.130524 -0.516566 -0.196324 
0.75337 -0.224173 0.0272924 
0.00734078 -0.0389306 0.599256 
0.361806 0.230161 -0.256114 
-0.339271 -0.195484 -0.536551 
-0.371204 0.0342392 -0.434755 
-0.377192 -0.332695 0.473604 
0.313243 0.221663 0.37444 
0.0265599 -0.513342 -0.315006 
0.247645 -0.211265 -0.581964 
-0.168463 -0.500829 0.392799 
-0.045887 0.300673 -0.210831 
0.715171 -0.107695 -0.135945 
0.229983 -0.516357 -0.0722396 
-0.060997 -0.468105 0.473669 
0.518202 -0.167206 0.359202 
-0.233161 0.272745 -0.283548 
-0.549565 0.0775 0.0492024 
0.394581 -0.355267 0.444168 
-0.0473916 -0.179072 -0.627325 
0.391181 0.26302 -0.0396667 
0.378841 -0.0896336 0.482534 
0.756082 -0.0104964 -0.0941955 
-0.0214471 0.137773 0.526181 
-0.470358 -0.485772 -0.0117761 
-0.552679 -0.175525 0.310198 
0.0776001 -0.236773 0.62728 
-0.548634 -0.168943 -0.318477 
-0.145836 -0.317233 0.597282 
0.42169 0.00416648 -0.40797 
-0.132651 0.28245 -0.299745 
0.220609 0.249571 -0.387673 
0.364256 -0.448681 0.342005 
-0.67105 0.158501 -0.071271 
0.467843 -0.283231 -0.419138 
-0.44284 0.170292 -0.263915 
-0.240416 0.230057 -0.377629 
-0.497158 0.201526 -0.0173312 
0.210836 -0.169331 0.593423 
-0.4837 0.228939 0.0212064 
-0.0767638 0.171884 0.503374 
-0.355946 0.259154 -0.18073 
-0.387179 -0.436633 -0.335723 
0.0957379 0.423554 -0.00920192 
0.578472 0.0046742 -0.0523196 
0.0283966 -0.242934 0.632622 
-0.118595 0.31427 0.0802728 
0.905575 0.137068 0.0533671 
0.91954 0.24599 0.0199946 
0.199246 -0.133042 -0.590949 
0.487642 0.0188662 -0.312524 
0.0947303 -0.513587 0.296714 
-0.17724 -0.509459 -0.3184 
0.323305 0.263315 -0.299468 
-0.498534 -0.322928 0.353397 
0.844989 0.146773 0.0699033 
-0.61826 -0.107524 -0.0146565 
0.564828 -0.386364 0.0248086 
0.483287 0.0958546 0.255987 
-0.410331 0.237514 0.0973277 
0.312375 -0.404071 0.451733 
-0.622987 0.127631 -0.0167952 
-0.350826 0.00220084 -0.466619 
-0.0820937 -0.508348 0.365302 
-0.924738 0.0896521 0.0627472 
-0.311412 0.226587 0.372926 
0.949196 0.169853 0.00480174 
0.050669 0.368745 -0.0199229 
-0.18161 0.214525 -0.455496 
-0.115564 -0.207893 -0.620849 
0.159359 0.297966 0.171745 
-0.551231 -0.382057 0.154726 
0.164171 -0.507343 0.34806 
-0.0456225 0.270465 -0.435419 
-0.393957 0.145788 -0.345802 
-0.618164 -0.115507 0.029119 
-0.108274 0.210862 0.480831 
0.895708 0.197191 0.0641292 
-0.549355 0.0552116 0.119278 
-0.433723 -0.0610885 0.428225 
0.0167961 -0.356675 -0.591802 
0.312061 0.247117 -0.359986 
0.476668 -0.460427 0.081218 
0.994089 0.207234 0.0167243 
0.790837 -0.0723729 -0.119271 
0.372452 0.275508 0.242551 
-0.675035 0.160955 0.0711148 
0.325355 -0.267453 0.543499 
0.0230282 -0.00243127 -0.58517 
0.534504 -0.0934042 0.311872 
-0.325585 0.26773 -0.208522 
-0.384094 0.0826277 -0.400172 
0.0747949 0.260232 -0.431913 
-0.424484 -0.31837 -0.446976 
0.0131711 -0.515645 -0.257994 
-0.406568 -0.25154 0.484645 
0.231177 -0.430551 0.464751 
-0.529424 -0.359011 -0.25928 
0.402171 -0.115695 -0.471977 
-0.257234 -0.173048 0.574473 
-0.26751 0.13702 0.458578 
1.04189 0.261813 0.0167111 
0.075851 0.312764 0.130675 
-0.307684 0.264445 -0.244818 
0.50089 -0.262268 -0.382294 
0.461555 -0.325301 0.399397 
-0.261726 0.181524 -0.43786 
-0.102089 0.307706 -0.14078 
-0.194883 0.290529 -0.203104 
0.506301 -0.158634 -0.373336 
0.316002 0.277999 0.144191 
-0.198746 -0.49962 -0.386244 
0.569636 0.0419147 -0.00534969 
0.533947 0.00943363 -0.22626 
-0.0645139 -0.356109 0.586044 
0.311789 0.0193602 -0.487959 
0.773073 -0.159683 0.106049 
-0.124991 -0.51891 0.0031095 
-0.283535 -0.468891 0.386187 
0.665013 -0.0489726 0.022267 
0.00840378 0.391782 0.0691252 
-0.600987 -0.154326 -0.187527 
0.299628 -0.462924 -0.379327 
-0.465841 -0.481127 -0.0752455 
0.388805 0.184321 -0.323374 
-0.333969 -0.257423 -0.539135 
0.392534 -0.32517 -0.46692 
0.739984 -0.233137 -0.0466694 
0.552963 -0.102214 -0.272615 
-0.153891 -0.0580431 0.586344 
0.195336 -0.517135 -0.104187 
-0.579258 -0.168469 -0.244715 
0.232105 0.272004 0.397195 
-0.604154 -0.0740186 -0.0581081 
-0.344505 0.085667 -0.428892 
0.318283 0.268126 -0.215647 
0.355061 -0.34381 -0.483069 
0.300886 0.282412 -0.130494 
-0.274517 0.279064 0.207056 
0.288528 -0.514408 0.0210706 
0.487393 0.170804 0.158367 
0.352497 -0.38101 -0.448292 
0.158437 -0.342493 -0.581966 
0.185589 0.249859 0.402127 
0.134187 -0.269975 -0.613913 
0.266591 -0.0886704 -0.552181 
0.449197 -0.279627 0.444448 
-0.156643 0.0170132 -0.559607 
-0.58249 -0.0314612 -0.11654 
-0.0637027 0.479547 0.0128276 
-0.537234 0.0353561 0.191337 
-0.470241 -0.450484 0.156423 
-0.429081 0.230079 -0.125915 
0.0706193 0.462177 -0.0845863 
-0.475105 -0.273665 0.412494 
-0.121271 0.230474 -0.418783 
-0.605562 -0.332915 0.017896 
-0.616432 -0.206739 -0.14853 
0.0483202 -0.423183 -0.523019 
0.81442 0.0718343 -0.0868682 
-0.515431 0.0165102 -0.263422 
-0.114585 -0.109817 0.605681 
0.346043 -0.416484 -0.408248 
0.507945 -0.379541 -0.264523 
0.0165413 0.292926 -0.264423 
-0.00690171 -0.318932 -0.614566 
0.520799 -0.424361 0.055112 
0.0420745 0.271126 0.368941 
-0.304187 0.0659523 0.470247 
0.263589 0.0837343 0.485991 
0.210738 -0.517415 -0.0292151 
0.0063687 -0.463324 -0.484344 
-0.380368 -0.439778 0.33844 
-0.616872 0.193565 -0.0268909 
-0.191832 -0.0269186 -0.562095 
-0.594925 -0.336976 0.0823081 
-0.465283 0.0598557 0.314651 
0.527313 0.0552415 -0.194473 
0.468951 -0.326828 -0.388428 
-0.0398436 0.332351 -0.0749929 
-0.0999512 0.275771 0.43797 
0.928881 0.262616 -0.040424 
0.577596 -0.00786185 -0.0945933 
0.214652 0.128664 0.484598 
0.135861 -0.491327 -0.441249 
-0.152147 -0.413671 -0.518129 
0.43823 0.229492 -0.204832 
0.304643 0.232777 0.302778 
-0.171452 -0.0642719 -0.583803 
-0.354853 -0.294356 0.514763 
-0.210628 0.023891 -0.534182 
0.566624 -0.374709 -0.0887679 
0.484452 -0.22593 -0.411276 
0.4949 0.210059 0.00379687 
-0.386617 -0.13374 -0.489043 
0.202046 -0.417734 0.492443 
0.173257 0.146753 0.493057 
0.00445444 0.273601 -0.456288 
-0.205799 0.247374 -0.35894 
0.955045 0.217445 -0.0583346 
0.254879 0.291391 -0.101124 
-0.00821679 -0.190309 -0.633416 
-0.500439 0.149992 0.151734 
0.531341 0.118385 0.0485738 
-0.520911 0.108014 0.151346 
0.25684 0.128764 0.467009 
-0.223947 -0.506641 -0.322898 
-0.272863 0.24367 0.392428 
-0.230333 0.295125 -0.100105 
-0.491107 0.121584 0.207237 
-0.10422 0.301155 -0.186743 
0.655865 -0.281452 0.0394225 
-0.355412 0.117284 -0.402659 
-0.287936 -0.510723 -0.198511 
0.144973 0.30401 0.130467 
-0.565696 0.00638676 -0.14457 
0.136051 0.300417 -0.1698 
0.546448 -0.376463 0.178875 
0.800335 -0.0238668 -0.11404 
-0.0749792 0.288215 -0.285142 
0.87347 -0.000623524 -0.00752536 
0.370777 0.168133 -0.359316 
-0.486736 0.134066 -0.203224 
-0.274618 -0.314597 0.550876 
0.218079 0.271366 -0.301494 
0.707474 -0.252789 -0.0855524 
0.263091 -0.514307 0.128028 
0.233746 0.225302 0.428339 
-0.859769 0.0102752 0.0247684 
-0.246072 -0.515837 0.0667835 
0.178874 -0.127226 0.598007 
0.0211714 -0.283515 0.626294 
-0.067733 -0.254299 0.62543 
0.581974 -0.0203269 0.0925007 
-0.561229 -0.0392129 0.204392 
0.0592459 -0.519009 0.0990751 
-0.0953398 -0.519103 -0.0439839 
0.197273 0.249106 -0.430877 
0.337308 -0.0967436 -0.516478 
-0.0858487 -0.519231 0.0327931 
-0.466185 -0.47772 0.0811269 
0.503082 -0.394859 0.24159 
0.339551 0.271521 -0.149058 
0.187693 0.304787 0.0198626 
0.244905 0.288039 -0.165011 
0.678382 -0.0629619 -0.0913333 
0.430236 -0.3227 0.439611 
-0.749122 0.120587 -0.0132454 
-0.265116 -0.514697 -0.0974165 
-0.460505 -0.0823624 0.404818 
0.393381 -0.454913 0.291946 
-0.179005 -0.472789 0.440582 
0.543532 0.103069 0.00807271 
0.227227 -0.474291 0.420005 
0.329411 -0.508627 -0.173661 
0.34302 -0.417341 0.409357 
-0.3416 -0.396061 0.440165 
0.59758 -0.0640405 0.0832133 
0.346792 0.276068 0.284443 
0.728228 -0.256411 -0.000593257 
-0.485802 0.101409 -0.243474 
0.130466 -0.516757 -0.190262 
0.562658 -0.263205 -0.284839 
-0.176239 0.0673996 -0.529626 
0.349787 0.263626 0.183298 
-0.389955 0.264568 0.0365361 
-0.250735 0.23039 0.357662 
-0.0263788 -0.519869 -0.00393027 
-0.0429252 0.269789 -0.373732 
-0.163562 0.307105 -0.0659928 
0.148981 -0.514894 -0.235702 
0.446747 -0.173972 0.45162 
0.102027 0.281191 0.320639 
0.441186 0.179136 0.259241 
0.557033 0.0272694 -0.146521 
-0.874351 -0.132933 -0.042151 
-0.0549139 -0.493755 -0.45103 
0.113451 0.284523 -0.294287 
0.542831 -0.39534 0.132877 
-0.316793 0.284441 -0.00690548 
-0.322107 0.282214 -0.0687088 
0.479135 -0.0923656 -0.384269 
0.0778642 0.0479915 -0.557688 
-0.262316 -0.496123 -0.365726 
-0.310889 -0.424706 -0.423615 
-0.474666 -0.0491938 0.368577 
-0.401193 -0.46954 0.263236 
0.295851 -0.0302034 0.520012 
0.41144 -0.214698 -0.483123 
0.214223 0.29635 -0.1184 
0.393848 0.092234 0.385267 
-0.370754 -0.508793 -0.00434634 
-0.361837 -0.496389 0.265358 
-0.0662379 -0.371092 -0.572736 
0.292051 -0.244737 -0.563223 
0.447112 0.198145 0.221809 
-0.268032 0.230319 -0.346913 
0.632245 -0.137117 -0.142823 
0.0318812 0.46229 -0.105532 
0.691926 -0.26801 -0.044369 
-0.130109 -0.499497 -0.415396 
-0.175772 -0.339459 0.577496 
-0.418617 0.231375 -0.0820549 
-0.252561 0.265331 -0.359591 
0.105653 -0.493917 0.444104 
0.510234 -0.0984273 -0.346049 
-0.843446 -0.0273915 0.0072699 
-0.107731 -0.351974 -0.583482 
-0.167314 0.142077 0.497791 
-0.600998 0.132282 0.0422261 
0.827082 0.0269532 -0.0978386 
-0.736625 0.134122 -0.055885 
0.191387 -0.0334233 -0.564586 
0.468048 -0.119488 0.408679 
0.437626 0.0503677 0.356869 
-0.366581 0.230373 0.239928 
0.322118 -0.512033 0.0974523 
0.0301811 -0.502381 0.41881 
0.431101 -0.500359 0.00796622 
0.832725 -0.0944882 -0.0609412 
0.413842 0.248352 0.23944 
0.274706 0.291253 -0.0149699 
-0.613627 -0.297109 0.0929151 
0.131899 -0.380442 0.555967 
-0.318023 0.282921 0.0673863 
-0.462199 0.163339 -0.228091 
-0.174237 -0.000235915 0.559768 
-0.672702 -0.233177 0.062215 
0.50487 0.0635149 0.239829 
0.856421 0.0905124 -0.0789308 
0.573534 -0.0248766 -0.162579 
-0.711449 -0.233418 -0.0716185 
0.849032 -0.0717668 -0.0200305 
0.690065 -0.14857 -0.147531 
-0.0590114 -0.514042 -0.29288 
0.410913 -0.221982 0.484308 
-0.536528 -0.316554 0.306387 
0.0429265 0.416279 0.0795368 
0.273959 -0.425168 0.45135 
-0.0731126 0.246792 -0.468302 
-0.227318 -0.422229 0.476471 
-0.594521 -0.325059 0.134595 
-0.0921499 0.29467 0.236804 
0.884284 0.0868686 0.0569079 
-0.0802686 0.318593 0.0929392 
-0.00635185 0.0269957 0.57551 
-0.916415 -0.0754962 -0.0367951 
-0.150322 0.305545 -0.107338 
0.372955 0.250423 -0.163737 
0.710184 -0.23317 0.103587 
-0.00938602 0.261753 -0.396491 
-0.497532 -0.0808214 -0.355837 
-0.351903 0.248897 -0.320797 
0.606434 -0.32978 -0.0241853 
-0.280738 0.276203 -0.216101 
-0.242416 0.295918 -0.0389502 
0.288105 0.275641 -0.337717 
0.537839 -0.251534 0.337379 
-0.0917359 0.324395 0.0482292 
-0.512499 -0.423722 0.123963 
0.562514 -0.0466698 -0.207655 
-0.285573 -0.200672 0.565224 
0.0421033 0.282069 0.326468 
-0.322134 0.274673 -0.161021 
-0.595547 -0.0329189 -0.0205465 
0.566331 -0.304703 0.251303 
0.135007 0.294205 0.220938 
-0.100357 -0.490217 -0.451135 
-0.62221 -0.212576 0.108221 
-0.501348 -0.149642 0.376468 
0.00671095 0.33937 -0.0675935 
0.268277 0.0991381 -0.476588 
-0.675247 -0.216481 -0.0323089 
0.163727 0.293696 -0.20298 
0.434206 -0.435567 0.276635 
-0.144288 -0.236906 -0.618518 
0.601398 -0.339589 0.0221278 
0.364589 0.273834 -0.27106 
0.47537 -0.353715 -0.356211 
-0.555562 -0.312185 -0.266724 
-0.636302 -0.236546 -0.0179603 
-0.871122 0.0752111 -0.0524201 
0.116298 0.187715 0.490715 
0.422191 -0.372076 -0.399192 
-0.445444 0.229957 0.0404791 
-0.332686 -0.074982 -0.512917 
-0.332452 0.100152 0.429981 
0.762994 -0.20425 -0.0683926 
-0.427195 0.23063 -0.0319881 
0.585564 -0.0407808 -0.116475 
-0.280646 -0.514687 0.0267638 
-0.662525 0.194908 0.00552378 
-0.455676 -0.321333 -0.410549 
0.00906233 -0.143738 -0.627155 
-0.309311 -0.299168 -0.545436 
-0.612793 -0.11683 0.0723918 
0.28832 -0.196261 -0.563677 
-0.298812 0.230238 0.326174 
-0.327592 -0.512878 0.00228615 
0.48417 -0.15854 0.402086 
-0.313999 -0.336699 0.519469 
0.839704 -0.0473251 -0.0782259 
0.238199 -0.514463 0.163688 
-0.623206 -0.25866 0.0787512 
0.373418 0.162959 0.359873 
0.0600212 -0.132463 -0.617936 
-0.317822 -0.294267 0.542951 
0.193758 0.00908846 0.54761 
-0.306005 -0.0405995 0.519218 
0.330156 -0.497409 -0.298835 
0.535043 -0.277217 -0.333494 
-0.0561511 0.287755 0.290381 
0.510109 -0.211068 -0.375835 
0.170765 -0.171015 -0.610237 
-0.573574 -0.349276 -0.171454 
-0.630357 -0.223369 0.0530712 
0.683246 -0.278675 0.00868632 
0.0783762 0.304548 0.173917 
-0.681028 -0.277649 0.0506242 
0.352597 0.105891 -0.411254 
-0.105827 -0.518309 -0.153613 
-0.251209 -0.11489 -0.56494 
0.165739 0.281302 -0.293431 
-0.273488 0.272427 0.248149 
-0.0894375 -0.400373 -0.54339 
0.0401389 -0.514058 0.294947 
0.255558 -0.515454 0.069005 
-0.264551 -0.469995 -0.399762 
0.00140587 0.223852 -0.488698 
0.78474 -0.197245 0.00868932 
-0.447448 -0.441728 -0.238354 
-0.598845 -0.25075 -0.203583 
-0.588028 -0.15652 0.219977 
-0.0880378 0.280109 0.329979 
-0.0379906 -0.0104085 -0.585851 
-0.467546 0.223893 -0.141169 
-0.401725 0.238688 0.197504 
-0.131048 0.241467 0.462817 
0.864791 0.158015 -0.0701404 
-0.545142 -0.00452805 -0.21353 
-0.563 -0.0382777 -0.199338 
0.204245 -0.0958694 0.579849 
0.359098 -0.376348 0.448332 
-0.0714067 -0.108203 -0.610977 
-0.290868 0.124981 -0.447935 
0.183323 0.0187927 -0.547744 
-0.0645377 0.116364 0.530158 
0.547228 -0.132446 0.304056 
-0.11663 0.139604 0.512887 
-0.557684 -0.307143 0.268684 
0.386852 -0.418547 0.370067 
-0.42441 0.275483 -0.149058 
0.107574 -0.518766 -0.0890074 
-0.414449 -0.454446 -0.265456 
0.333943 -0.475232 -0.343093 
-0.195634 -0.38724 -0.529351 
-0.378632 -0.506926 0.0957333 
-0.541324 0.086973 -0.0801385 
0.16153 0.0909091 0.524952 
0.552999 0.00479752 -0.185267 
-0.663823 0.124323 0.00011676 
-0.37023 -0.186699 -0.51181 
0.505267 0.0416871 -0.261625 
-0.837294 0.126611 -0.0671611 
-0.456394 -0.447063 0.200319 
-0.260479 -0.35793 0.529942 
-0.336223 -0.425628 0.402831 
0.22202 -0.0134507 -0.544774 
-0.317413 0.269343 0.209492 
0.483937 -0.456819 -0.0460038 
0.499583 -0.090275 0.356902 
-0.228983 -0.515448 -0.134648 
0.00863951 0.102034 0.543924 
0.0852979 -0.184091 -0.622787 
-0.521467 0.116876 -0.129111 
-0.537859 -0.0212966 0.245335 
-0.400105 -0.153193 0.48418 
0.165038 -0.171583 0.611274 
-0.573341 -0.362593 0.118249 
0.542264 -0.337235 0.263628 
0.521385 -0.414921 -0.131997 
-0.210973 0.300484 0.0540742 
0.418604 0.276852 0.15353 
-0.463485 0.134492 -0.258649 
-0.88679 0.158489 0.02051 
-0.357303 0.272129 -0.256515 
0.448625 -0.231986 0.456385 
0.596713 -0.273677 -0.198069 
-0.218224 0.294234 0.138232 
-0.495931 -0.448358 0.0295334 
-0.176198 -0.183427 0.609117 
-0.14507 -0.410211 0.524991 
0.26598 0.230448 0.34383 
0.131481 0.118945 0.520226 
0.599793 -0.241139 0.205763 
0.743807 0.0224072 0.00915672 
0.190081 -0.204684 0.605295 
-0.521661 0.132774 -0.0730933 
-0.0266788 0.428856 -0.0982279 
0.507266 0.164215 0.0747019 
0.100263 -0.353559 -0.583586 
-0.496431 -0.383425 0.283435 
0.521069 0.111229 -0.147222 
-0.159686 -0.513188 -0.280666 
0.138088 0.306316 -0.116315 
-0.406033 -0.413243 0.354902 
-0.0460511 -0.519494 -0.046674 
0.591465 -0.0323384 0.0502379 
0.868144 0.249216 -0.00224938 
0.733777 -0.00333661 -0.0396527 
0.63087 -0.287672 -0.0493556 
-0.00184851 0.385957 -0.0660679 
0.340517 -0.508719 0.144434 
-0.224636 0.11614 0.486507 
-0.143386 0.276411 0.322608 
-0.0901318 -0.445172 -0.4918 
0.572064 -0.378266 -0.023548 
0.916196 0.197553 -0.0629551 
0.515422 0.12419 0.145721 
-0.308463 0.0142764 0.493085 
0.896656 0.0685837 0.000500301 
0.525359 0.0433493 0.211568 
-0.551447 -0.395157 0.0683399 
0.341532 -0.44272 -0.373572 
-0.849599 0.17399 -0.00837717 
-0.21002 -0.514615 -0.194006 
0.717357 -0.0930969 0.130697 
-0.445092 0.0745414 -0.33126 
0.658767 -0.199889 0.142636 
-0.267993 0.0347085 0.505644 
0.765113 0.0605248 -0.00566398 
-0.292073 0.0312114 -0.497124 
-0.349958 -0.41096 -0.413072 
0.568134 -0.364461 0.145534 
0.200985 -0.333231 -0.570639 
-0.0933332 -0.148024 -0.61708 
-0.00716191 -0.517733 -0.205531 
0.221557 0.193993 -0.449329 
0.782805 0.0951201 0.0363195 
0.0329084 -0.490848 -0.458893 
-0.164662 0.0408244 0.545955 
-0.479393 -0.0269604 -0.350471 
0.200603 -0.0897459 -0.579878 
-0.724591 0.191442 -0.0134205 
-0.32114 -0.36137 -0.493938 
1.05104 0.261454 -0.0417104 
-0.378882 0.211751 -0.315114 
0.458556 -0.143762 -0.42996 
-0.452434 -0.161806 -0.443995 
-0.219504 -0.0656446 -0.564311 
-0.57549 -0.228335 -0.266985 
-0.392725 -0.367522 -0.432157 
0.700099 -0.216415 -0.129417 
0.347526 -0.0205607 -0.479012 
0.46841 -0.419788 0.253839 
-0.360958 -0.505598 0.181173 
-0.196914 0.282861 0.259546 
0.10855 0.291267 0.252597 
-0.0315109 -0.519588 0.0457643 
-0.00990506 0.471679 -0.0959103 
-0.423326 0.228947 -0.241347 
-0.318537 -0.390377 -0.46413 
-0.518725 -0.133456 -0.347906 
-0.569499 0.0142407 0.0914107 
0.290541 -0.366829 0.509078 
-0.454311 -0.212775 -0.448649 
0.303062 -0.284622 -0.550949 
0.268873 0.186589 0.429359 
-0.731663 -0.219814 0.071224 
-0.0679139 0.389194 -0.00437287 
-0.238301 -0.411041 -0.485505 
0.453095 -0.443732 0.218566 
0.11306 -0.509803 0.341148 
0.845339 0.018285 0.0879931 
0.276513 -0.508063 0.259577 
-0.39341 -0.0859573 0.470294 
0.422674 -0.010254 0.415262 
0.227994 -0.264171 0.586106 
-0.0571551 -0.321257 -0.606724 
0.637 -0.0852503 0.102428 
-0.590766 0.162737 -0.0712103 
0.489643 0.159326 -0.166836 
-0.938417 0.119548 0.00302186 
0.583866 -0.356035 0.0816278 
-0.0685311 -0.505568 -0.396643 
-0.254321 0.293899 0.0475275 
-0.86686 -0.146477 0.0385345 
-0.5457 -0.281154 -0.317297 
0.443719 -0.0815517 -0.426227 
0.0723381 -0.510142 -0.347498 
-0.420938 0.0305814 -0.391582 
-0.277541 0.258669 0.2902 
-0.287181 -0.271693 0.560047 
-0.0325456 -0.134288 -0.621948 
0.134297 -0.445548 -0.485564 
-0.480068 -0.279428 -0.404353 
0.0763176 0.142683 -0.516785 
-0.564838 0.0395085 0.0493578 
0.365465 0.0450858 -0.433686 
0.262415 0.155813 -0.451603 
0.0181098 -0.519826 -0.025404 
-0.302517 0.217391 -0.38522 
-0.105439 -0.518821 0.0826301 
0.120979 -0.34277 0.586724 
-0.71275 -0.194238 -0.0301616 
0.352361 -0.509838 -0.0599207 
-0.0713897 0.237757 -0.413482 
0.218099 -0.515095 -0.163499 
0.287918 -0.346119 -0.526992 
-0.247997 0.0390181 -0.51209 
-0.136404 -0.518385 0.115454 
-0.44307 0.276004 -0.0562592 
0.147997 -0.518475 0.0842155 
-0.299396 0.264015 0.356237 
0.256108 0.262586 0.301473 
0.598709 -0.119419 0.17263 
0.273481 -0.154882 -0.565385 
0.387745 0.0131671 0.43269 
-0.624301 -0.169863 -0.064488 
-0.104542 -0.517409 0.187665 
0.29006 -0.508318 -0.237537 
0.492994 0.0544414 0.277852 
-0.0145627 -0.0891874 0.614139 
0.215805 0.242949 0.358434 
0.00211085 0.323395 -0.105934 
-0.526645 -0.135638 0.338405 
0.433146 -0.398231 0.347326 
-0.31446 -0.513209 0.0566146 
-0.616155 -0.149328 -0.102632 
-0.267176 -0.508285 0.267702 
-0.354577 0.0216885 0.453885 
-0.00412116 -0.516691 0.232509 
-0.228779 -0.503379 0.349224 
0.408206 0.205196 -0.282031 
0.455929 -0.482211 0.134115 
-0.772309 -0.223894 -0.0450306 
0.439047 0.122738 0.304075 
0.104477 0.31989 -0.0516691 
-0.116683 -0.343819 0.58672 
0.253351 -0.512438 0.213706 
-0.338751 -0.259091 0.535083 
0.196593 -0.460862 0.442487 
-0.0197393 -0.510305 -0.35266 
0.305698 -0.40191 -0.459931 
0.34428 0.102651 0.419478 
0.540586 -0.0341659 -0.249742 
0.0554731 -0.470298 0.472779 
-0.328674 -0.156381 -0.54 
0.363485 -0.339251 0.479688 
0.613103 -0.100887 -0.116803 
-0.57522 -0.117879 -0.228226 
0.107737 0.463305 0.00876979 
0.232785 -0.0644861 -0.558379 
0.0575423 -0.519553 -0.0139532 
-0.455042 0.139466 0.270987 
0.920111 0.229123 0.0589644 
-0.482653 -0.370528 0.322757 
0.272069 -0.502371 -0.321816 
0.0914111 -0.516821 -0.209274 
0.926887 0.129425 -0.00338228 
0.256732 0.276946 0.364664 
-0.445546 -0.0808308 -0.423463 
-0.519326 -0.21961 -0.365034 
0.525206 0.130476 -0.0539164 
0.39737 0.225751 0.280262 
0.474804 0.121969 -0.246 
-0.696409 -0.204018 0.0283748 
0.19384 -0.442135 -0.465432 
-0.338021 0.242018 0.343314 
0.810561 0.148634 0.0470014 
0.433593 -0.116201 0.447962 
-0.409817 -0.497802 0.163894 
-0.512348 -0.407137 -0.185154 
0.0824792 -0.286434 -0.617737 
0.544293 0.0945009 -0.031661 
0.0794261 0.0682871 0.549314 
0.269044 0.279309 -0.212707 
-0.409086 -0.179619 -0.481179 
-0.513235 0.0553196 -0.228252 
0.116642 0.311838 0.101584 
0.280845 -0.456071 0.400176 
0.240006 -0.0808486 0.561174 
0.204115 -0.21637 -0.600531 
0.0246756 -0.518489 0.16535 
0.0560011 0.478749 -0.0499532 
-0.099594 -0.280352 0.616585 
0.17633 0.290208 0.219793 
0.589582 -0.204565 0.227845 
-0.204648 -0.213215 0.60002 
0.329937 0.281925 0.0222524 
0.460103 0.0690874 0.315321 
0.667223 -0.268831 0.0798034 
-0.118495 -0.500665 0.414393 
-0.435097 -0.499164 0.0198114 
0.290405 -0.434147 -0.425753 
-0.469893 -0.424756 0.235753 
-0.129544 -0.51867 -0.0765604 
0.0878242 -0.513337 -0.306453 
0.53949 0.0907191 0.0812864 
0.47039 -0.0658163 0.383072 
-0.559272 0.0689462 0.00140121 
-0.402149 0.0559582 0.399337 
-0.574932 0.0278987 0.00798678 
-0.907191 0.0348161 0.0716427 
0.265429 -0.513932 -0.147183 
0.331694 0.28029 -0.0698925 
0.470042 0.256437 0.0148164 
0.0983046 -0.23662 -0.624594 
0.379035 0.230477 0.216609 
-0.228244 0.206785 -0.440043 
-0.350982 0.26882 0.147208 
0.0819538 -0.518344 -0.163381 
-0.196905 -0.268608 -0.598175 
0.557734 0.0585341 0.0451226 
-0.56984 -0.106277 0.234394 
0.399999 -0.309007 0.472161 
0.194407 0.30186 0.0740096 
-0.0594935 -0.517837 -0.194653 
0.418831 0.23153 -0.247889 
0.215298 0.273449 0.294038 
0.329461 -0.0125077 0.489573 
-0.494279 -0.444358 -0.0786393 
0.186008 -0.515314 -0.193786 
0.969835 0.22327 0.0559512 
-0.321702 -0.175239 0.54787 
-0.683059 -0.284808 -0.0296172 
-0.231677 0.284023 -0.221725 
0.405283 -0.356247 -0.434864 
0.264418 0.265207 -0.381571 
-0.173155 0.298241 0.154619 
0.27596 0.286168 0.131873 
-0.258725 0.224203 -0.414846 
0.354238 -0.508913 -0.106089 
0.734862 -0.196808 -0.112317 
-0.762786 -0.185635 0.0683791 
-0.30496 0.271912 -0.341638 
-0.00389643 -0.47649 0.476707 
-0.107094 0.221118 -0.476141 
0.379336 -0.234682 -0.509376 
-0.502098 0.0674664 0.242378 
0.306293 0.230303 -0.318101 
0.637728 -0.257079 -0.107991 
0.472693 -0.434311 -0.200596 
-0.00383016 0.343724 0.0625115 
0.0942106 -0.000564218 0.575092 
-0.604189 -0.206614 -0.193165 
0.600131 -0.17177 0.195239 
0.150903 -0.220402 0.617285 
0.394515 -0.44648 -0.306944 
-0.137205 0.306022 0.119736 
-0.476902 0.0372312 -0.314418 
-0.135843 0.179919 0.491837 
-0.309362 -0.512362 0.119049 
0.722059 -0.0123945 0.0214507 
-0.517537 -0.268154 -0.358919 
-0.482535 0.10688 0.244964 
-0.425861 -0.4849 0.201376 
-0.604526 -0.166262 0.183454 
-0.497401 0.178184 -0.0996386 
0.238632 0.226476 -0.425711 
-0.197857 0.292036 0.186878 
0.176569 -0.480599 -0.438845 
-0.437055 -0.114383 -0.444786 
0.449281 -0.260101 -0.449878 
0.146469 -0.0393282 -0.581157 
0.210362 -0.506887 -0.330052 
-0.0603219 0.401578 0.0477526 
0.0104848 -0.518606 -0.155148 
-0.737801 -0.193324 -0.0644187 
-0.493286 -0.376552 -0.300334 
0.644625 -0.0630483 -0.0602874 
-0.581251 -0.228175 0.253092 
0.310016 -0.506848 0.237107 
0.0895133 -0.516684 0.21383 
0.501759 -0.205096 0.385863 
-0.496057 -0.448471 -0.027542 
-0.249692 0.28752 0.163889 
-0.448084 0.206609 -0.209121 
-0.470981 0.247618 -0.0488121 
-0.32014 0.062292 -0.459832 
-0.562359 -0.133003 0.267987 
-0.323598 0.230513 -0.289267 
0.182799 -0.513181 0.26458 
0.0191859 -0.102137 -0.616452 
-0.378805 -0.413823 0.386834 
0.594166 -0.0797275 0.148666 
0.0242813 0.301657 -0.20731 
-0.868461 0.0523496 0.0400731 
-0.217577 -0.478504 -0.422532 
0.515579 -0.00304472 -0.283372 
-0.780921 -0.150782 0.057948 
-0.406329 0.230542 0.14616 
0.425954 0.0893376 0.345631 
0.225152 0.299343 -0.00208737 
-0.504768 -0.165492 -0.376437 
-0.948561 0.0758521 -0.0211752 
-0.490207 0.203409 -0.0635915 
0.497676 0.19407 -0.0402547 
-0.148609 -0.516701 0.178103 
-0.753554 -0.23909 0.0420662 
0.478142 -0.470305 0.0145051 
-0.161462 -0.51702 -0.156945 
-0.442247 0.110026 0.309247 
0.592235 -0.327244 -0.143017 
-0.265557 -0.420907 0.46218 
0.0772135 0.156138 0.51062 
-0.27734 -0.443514 0.421729 
0.0235838 0.328949 0.0900019 
-0.142388 -0.149995 -0.611097 
-0.626095 -0.222297 -0.0848975 
-0.159319 -0.273116 0.610057 
-0.824228 -0.0647253 0.004846 
-0.53088 -0.278053 0.338665 
0.312814 0.271098 0.20496 
-0.860629 -0.0350661 0.0581551 
0.126592 0.274801 -0.335944 
-0.312629 -0.50483 0.265385 
-0.569621 -0.175978 0.269551 
-0.6448 -0.300096 0.044571 
0.208431 0.0872284 0.507233 
0.475187 -0.444308 0.163648 
-0.381884 0.256286 -0.126202 
0.00277321 0.230166 -0.444351 
-0.408982 -0.232144 -0.48688 
-0.0818509 -0.518456 0.151051 
0.307398 0.264803 0.244571 
-0.614775 -0.11598 -0.0557933 
0.55513 -0.359354 -0.196674 
-0.0930652 0.421278 -0.0140333 
0.50509 0.1798 0.0351166 
-0.151733 0.272841 -0.412284 
-0.113811 -0.0507425 -0.589192 
-0.421645 -0.498274 -0.129773 
-0.179517 -0.478002 -0.438533 
-0.386947 -0.324995 -0.471335 
0.107898 -0.460194 0.473344 
-0.210858 -0.509094 0.300198 
0.821114 0.114378 0.0748435 
-0.454381 0.261116 -0.112505 
0.250238 -0.50793 -0.285472 
-0.223825 0.270228 0.302315 
-0.345973 -0.505211 -0.21877 
0.0519489 -0.239418 -0.630167 
0.00200508 0.281788 0.333413 
-0.0290581 0.27385 0.360657 
0.0531128 0.237443 -0.475502 
0.225483 -0.510761 0.266703 
0.196915 -0.0567923 0.570566 
0.563715 -0.105501 0.248673 
-0.953469 0.0283603 -0.00168665 
-0.219054 -0.454235 0.439372 
-0.546741 -0.238907 0.329497 
-0.25486 0.0894568 -0.486851 
0.803499 -0.11571 -0.100086 
-0.105038 -0.314918 -0.603879 
-0.375419 -0.505735 0.142616 
0.174094 -0.516882 -0.146255 
0.397528 0.249066 0.103905 
0.214567 0.299982 -0.0513687 
0.560944 -0.220879 -0.300325 
0.249643 -0.362246 0.530389 
-0.632096 -0.298618 -0.0573657 
0.468724 0.210568 0.154633 
0.193396 -0.510709 -0.292066 
0.337257 -0.511889 -0.00874403 
-0.387401 0.11672 -0.375673 
-0.212728 0.256647 0.342716 
0.220013 0.0378366 0.524237 
-0.605155 -0.28968 -0.17034 
0.505632 -0.376052 0.277976 
-0.615851 -0.198118 0.147354 
0.476065 0.21651 -0.124275 
-0.0935361 0.427191 0.0346091 
-0.149076 0.297156 -0.186211 
-0.0672769 -0.22692 -0.628798 
0.0254287 -0.357466 0.589981 
0.733045 -0.149521 -0.134708 
-0.221533 -0.516564 -0.0789354 
-0.235803 -0.50933 -0.277871 
0.204656 -0.498834 -0.387715 
0.462954 -0.4869 0.0535306 
0.406571 -0.0589521 -0.449488 
-0.516456 0.085353 -0.188431 
0.248618 -0.513056 -0.208783 
-0.239098 0.276206 0.376617 
0.294257 -0.505613 -0.279064 
0.394095 -0.154548 -0.489184 
-0.207312 -0.514733 0.192606 
0.557149 -0.271702 0.294145 
-0.155412 -0.316692 -0.596319 
-0.263615 0.250311 -0.312011 
-0.564964 -0.232131 0.293139 
-0.857267 0.0694885 -0.00618725 
-0.887668 -0.127509 0.00350579 
-0.464206 -0.128348 0.416937 
0.369536 -0.498763 0.237352 
0.230068 0.27903 -0.256985 
-0.676235 0.130626 -0.042473 
0.535461 -0.39257 -0.168888 
-0.476668 -0.443781 -0.161718 
0.324839 -0.307 0.531309 
-0.232602 -0.494875 0.394228 
-0.155792 -0.101553 0.59842 
0.0509219 0.325579 -0.0876069 
0.0167951 0.0522123 -0.563991 
0.141097 0.279683 0.310644 
-0.150913 -0.506019 -0.368721 
0.25305 -0.484776 -0.400231 
-0.235766 -0.0622376 0.556343 
-0.449533 0.029093 -0.35537 
-0.430755 -0.498518 0.0758238 
0.46752 -0.4041 0.291787 
0.0459089 -0.424622 0.521711 
0.762018 -0.10899 0.130828 
-0.141119 0.31441 -0.0136995 
0.398153 -0.504772 0.103144 
0.0721975 -0.16915 0.62323 
-0.434859 -0.447904 0.249509 
-0.856081 -0.0249534 -0.0476552 
-0.273071 0.287497 -0.118097 
-0.563723 -0.324194 0.23028 
-0.503391 0.0344 0.273734 
0.159929 0.307758 -0.0667451 
0.579006 -0.256225 0.248759 
-0.306472 0.168375 0.411259 
-0.188797 -0.518268 0.0186818 
-0.0867657 -0.0112705 0.579745 
0.735673 -0.196815 0.11071 
0.0231984 0.313381 -0.144734 
0.178554 -0.286171 -0.602416 
-0.84189 -0.0653585 -0.0544486 
0.783894 0.0978515 -0.033605 
0.374921 -0.194275 -0.509014 
0.159898 0.285941 0.264705 
0.453345 0.122269 -0.285822 
-0.236288 0.2664 -0.401638 
-0.0699845 -0.510956 -0.33915 
-0.326255 -0.130634 0.534571 
0.458811 0.133701 0.270318 
-0.271782 0.289665 0.087385 
-0.376029 -0.507821 0.0429623 
0.195022 0.258844 -0.350358 
-0.266888 -0.514538 0.103657 
0.652187 -0.195985 -0.144555 
0.878079 0.026875 0.0235841 
-0.438079 -0.109535 0.442627 
0.0369515 -0.183165 -0.629043 
0.471997 0.245377 -0.0512474 
0.0692309 -0.502582 -0.412758 
0.115946 -0.0835336 0.599579 
-0.308842 -0.512512 -0.116185 
0.319448 -0.511187 -0.127144 
0.0577367 0.399714 -0.0484236 
0.0792802 -0.51538 -0.253899 
-0.0083989 -0.506698 -0.392504 
-0.00705095 0.316526 0.131991 
-0.181328 0.305875 0.0148731 
-0.150688 0.268105 0.435413 
-0.331393 0.274689 0.3105 
0.122991 0.230446 -0.418921 
-0.0238292 0.0746319 0.554045 
-0.706951 0.188845 0.038323 
-0.886801 -0.0873409 -0.0642147 
0.554175 0.0507172 0.0962951 
-0.476658 0.221613 -0.101359 
-0.4778 -0.40958 -0.261104 
-0.268025 -0.504265 0.313891 
-0.278749 -0.514815 -0.0163273 
-0.114831 -0.510855 0.328374 
0.284761 -0.286651 0.558166 
-0.528846 -0.0650748 -0.304319 
0.40598 -0.269817 0.48098 
0.115211 -0.0636918 -0.593272 
0.411421 -0.0720637 0.45118 
0.0799162 -0.122507 0.613087 
-0.185401 0.305031 -0.0253644 
0.367569 -0.123147 -0.500689 
0.797852 0.0801226 0.0749379 
0.592093 -0.0179672 -0.00934481 
-0.445023 0.240321 0.175249 
-0.394486 -0.00282079 0.435574 
0.312126 -0.513171 -0.0817413 
-0.888529 -0.00308061 -0.0676532 
0.623498 -0.0647915 0.0514435 
0.141884 -0.497547 0.420242 
0.41808 0.151374 -0.310322 
0.0118772 0.167479 0.513957 
0.130532 0.11797 -0.520789 
-0.157067 -0.226361 0.616985 
-0.879657 0.0860613 0.0647085 
-0.130754 -0.513818 0.275381 
-0.189516 0.271576 -0.322489 
-0.221647 -0.51309 -0.237644 
-0.268599 -0.513623 0.159149 
-0.280492 0.282816 -0.170105 
0.13919 -0.207198 -0.617695 
-0.0483771 0.332143 0.0702404 
-0.247294 -0.214614 0.582418 
0.304869 0.28538 0.0547549 
-0.217336 0.173837 -0.461333 
-0.776135 0.187419 -0.00525187 
-0.264179 0.291608 -0.0753678 
0.0284286 0.30978 0.161067 
0.255718 -0.498169 -0.358875 
0.189556 -0.495016 0.412124 
-0.0457726 -0.0223938 0.588777 
0.487165 -0.263236 0.399864 
-0.544231 -0.0769457 0.277431 
-0.197786 -0.254174 0.600595 
-0.141808 0.28826 0.25827 
-0.11761 0.0332457 -0.558416 
0.319371 0.0593629 -0.461906 
0.545706 -0.357749 0.222969 
0.414773 -0.25868 -0.476729 
0.826359 -0.0209234 0.0999943 
0.164814 -0.39499 0.53488 
-0.542005 0.0998846 -0.0306585 
0.370999 -0.0831138 -0.486718 
-0.0864689 -0.493375 0.447546 
-0.246524 -0.515937 -0.0438647 
-0.432374 -0.022529 0.409246 
0.380221 0.268266 0.0360196 
0.0111871 0.258983 0.399185 
-0.31224 0.281963 -0.110194 
0.660729 -0.105238 0.130505 
-0.43524 -0.287291 0.45455 
0.0513848 -0.51159 0.334847 
0.424386 -0.300274 -0.459343 
-0.431279 0.113218 -0.32117 
-0.73991 0.180164 -0.052537 
0.431831 0.060113 -0.357996 
0.35022 -0.50613 0.192359 
0.863133 0.218142 0.0446915 
-0.17876 -0.357655 -0.564175 
0.47843 0.0871137 -0.277842 
0.425213 0.273938 -0.157824 
-0.223205 -0.115391 0.576705 
0.655742 -0.0952722 -0.11829 
-0.56141 -0.0677273 -0.228257 
0.281418 -0.242413 0.568093 
0.292726 0.280553 -0.174452 
0.362582 -0.295554 0.508551 
-0.045346 -0.516158 -0.240684 
0.402013 -0.505315 0.0480513 
0.373672 -0.228596 0.513647 
0.542674 -0.0718658 0.276847 
0.18333 0.234808 -0.382192 
-0.94066 0.0322425 0.048704 
-0.16959 0.288559 -0.237451 
-0.232826 0.183326 0.450068 
0.338562 -0.499883 0.269146 
0.362068 0.267972 0.128592 
0.178927 0.0546317 0.534041 
-0.301767 0.128575 0.437527 
-0.0457305 0.295914 0.241558 
0.201456 -0.502906 0.368705 
0.908384 0.151335 -0.0573086 
-0.416758 0.085105 -0.360701 
0.931551 0.173548 0.0456784 
-0.0987692 0.287549 0.280768 
0.144026 0.0163835 -0.561743 
0.520658 -0.391016 -0.208004 
0.449009 -0.493882 -0.0686678 
0.341115 -0.271492 -0.530474 
-0.291619 -0.253003 -0.561808 
-0.346028 -0.441103 -0.372544 
-0.44785 -0.454288 -0.198503 
0.244422 -0.400845 0.495353 
0.833848 0.187142 0.0458432 
0.264703 0.237695 0.402247 
0.711344 -0.258794 0.0569545 
-0.38888 0.253158 0.268443 
0.198052 0.0751985 -0.517177 
0.213867 -0.516276 0.116411 
0.555753 0.0445812 -0.103111 
0.0356553 0.133816 0.526098 
-0.259719 -0.107125 0.559517 
-0.52975 -0.354973 0.267625 
0.0841749 0.27885 -0.3351 
0.0825162 -0.384009 -0.559323 
0.119873 -0.518332 -0.139792 
-0.830069 0.17144 -0.0467057 
-0.100262 -0.514116 -0.279877 
-0.0188024 0.0855199 -0.550015 
-0.509243 -0.39144 0.234503 
0.213277 0.282818 0.247289 
-0.0869117 0.271205 -0.362774 
-0.0845303 0.426757 -0.0532648 
0.704997 -0.175067 0.139781 
-0.406377 0.197649 0.290233 
-0.100115 -0.422459 0.51705 
-0.605561 -0.326705 -0.0435472 
0.223872 -0.516954 0.0188319 
-0.69961 0.184583 -0.0476754 
-0.298655 -0.497928 -0.327269 
0.094803 -0.506709 -0.381058 
1.07978 0.268352 -0.00409301 
0.792305 0.133864 0.00841589 
0.551571 0.00821161 0.185147 
-0.481349 -0.188014 0.410033 
0.230766 -0.41148 -0.488103 
-0.895663 -0.104193 0.0415393 
0.10961 -0.212593 0.62203 
-0.348622 -0.508754 -0.123971 
-0.579633 -0.0230382 0.117173 
-0.351266 0.231665 -0.243994 
0.0537127 0.292092 0.264577 
0.219191 -0.457764 -0.435543 
-0.940504 -0.0260595 0.0175751 
-0.485799 -0.41778 -0.217892 
0.0985793 0.466869 -0.0320704 
0.141875 -0.514194 0.260439 
-0.466015 0.18961 0.186783 
0.347292 0.273934 -0.107525 
0.125936 -0.508409 -0.351752 
0.583886 -0.322077 -0.184746 
0.107257 0.23013 0.431717 
0.136344 0.206588 -0.478352 
1.02717 0.227753 -0.00517313 
0.0112684 -0.519022 -0.112423 
0.198927 -0.517476 0.0730392 
-0.560303 0.0181409 0.149614 
0.885809 0.117447 -0.0681417 
-0.0186173 0.481533 0.0366755 
-0.844814 0.101052 0.046281 
0.389821 0.100485 -0.384446 
-0.345058 -0.479363 -0.329181 
-0.21929 0.30029 0.000200786 
-0.103412 -0.231095 0.624419 
-0.0803087 0.295304 -0.237323 
-0.0478796 -0.498447 0.434743 
-0.373964 -0.240253 -0.512251 
-0.292087 0.287807 -0.0407039 
0.271211 -0.394581 -0.491027 
0.804228 -0.174945 -0.0190113 
-0.587868 -0.0313759 -0.0752836 
0.0838214 -0.48945 -0.454616 
-0.367425 0.270044 -0.0839216 
-0.900919 -0.0535312 0.0655284 
0.0687909 0.192991 -0.494447 
0.0770213 -0.280765 0.619469 
-0.478186 0.222774 0.0855155 
-0.565574 -0.383235 -0.0399718 
0.475958 -0.221435 0.421698 
-0.227326 -0.516882 0.00645495 
0.800175 -0.168574 -0.0599096 
0.267379 -0.514736 -0.0893816 
0.349345 0.27742 -0.0154939 
-0.0430618 0.0406968 -0.565185 
0.13491 -0.127106 0.606917 
-0.191455 0.296796 -0.146047 
-0.158179 -0.507025 0.354185 
0.138435 -0.505427 0.380684 
0.502545 0.160968 -0.122263 
-0.0146222 -0.513984 -0.300183 
-0.705682 0.124335 -0.0109351 
-0.272985 -0.513765 -0.140027 
-0.040562 0.309047 0.162944 
0.299083 -0.185721 0.558236 
-0.132394 -0.515382 0.231774 
0.52234 -0.128396 0.34134 
0.496232 0.175707 0.117479 
0.54017 0.0552129 0.163578 
0.11933 -0.514034 -0.274196 
-0.0283586 -0.269585 0.627849 
-0.28033 -0.496114 0.351929 
0.257084 0.013328 0.519445 
-0.137454 -0.281457 -0.611427 
-0.346072 0.277753 0.0311522 
0.397732 0.13933 -0.345634 
-0.188446 -0.41064 0.50672 
